0,883,881,883,881,884,886,889,888,883,883,885,885,885,884,887,885,883,881,885,884,881,881,885,889,886,886,884,884,881,881,878,882,882,883,882,882,882,880,880,881,882,881,880,880,879,879,878,878,881,881,881,878,877,878,877,876,878,881,880,878,878,878,876,875,873,873,873,872,872,872,874,874,874,873,872,873,871,872,870,870,863,847,810,789,782,780,779,780,779,780,780,779,775,773,773,772,774,772,774,772,774,775,777,775,776,776,776,774,772,770,768,765,763,760,759,758,756,755,753,752,748,746,742,740,738,738,736,733,733,733,734,735,735,736,735,735,732,731,729,729,725,718,708,701,695,690,685,681,678,678,679,679,677,676,676,676,675,674,671,670,668,667,665,662,661,658,655,652,651,651,650,650,649,647,645,646,645,645,644,643,643,641,641,640,640,639,638,637,638,639,640,639,638,638,640,640,639,636,636,637,638,639,638,635,634,634,635,635,636,637,638,637,637,638,640,640,641,641,640,641,643,644,643,642,643,646,647,646,644,645,650,652,651,649,649,649,646,647,647,651,647,647,646,646,647,648,650,648,648,648,653,653,657,658,661,665,671,678,683,685,687,688,689,689,689,692,694,697,697,698,702,702,689,654,612,588,582,590,601,606,605,605,607,611,618,625,631,634,636,639,640,644,645,648,647,648,646,648,649,648,647,646,647,648,649,650,652,651,651,651,652,652,651,652,652,651,650,649,650,650,649,650,650,649,647,647,647,648,649,649,649,647,644,638,634,629,626,623,619,615,610,609,606,603,599,598,596,591,584,579,576,575,575,572,566,562,559,557,555,552,550,546,543,541,538,532,527,523,528,541,569,590,599,603,605,604,603,602,600,596,587,580,574,573,572,571,571,570,570,572,572,573,573,575,578,585,595,603,609,615,624,629,629,630,629,628,626,624,623,622,622,622,621,621,624,628,630,631,631,630,630,631,631,632,631,630,628,627,628,630,631,631,630,629,628,629,634,643,653,657,660,659,658,654,648,643,640,638,634,632,629,629,630,631,633,632,630,628,625,625,623,623,620,621,622,623,623,624,625,624,623,623,622,622,620,620,621,619,620,621,623,623,623,623,625,626,628,629,627,628,627,629,628,628,628,627,628,628,632,632,632,631,632,631,631,630,633,634,635,634,0
0,886,882,883,881,884,882,885,883,882,882,883,881,879,880,885,884,884,881,884,880,879,879,883,888,886,888,886,886,881,879,876,880,882,882,881,879,880,879,879,880,883,882,879,877,880,881,879,878,880,883,883,878,877,876,879,878,877,879,878,878,877,876,874,873,874,873,873,871,872,872,873,873,874,874,873,873,871,872,870,871,867,860,839,804,786,782,781,782,782,782,780,779,776,775,772,771,772,772,771,769,768,772,774,773,774,775,775,772,769,766,766,763,761,759,759,759,758,758,756,755,753,752,750,750,749,749,747,745,745,746,744,744,742,744,743,742,739,737,734,735,735,733,727,722,714,707,699,693,687,685,684,683,679,675,675,674,673,668,666,663,663,660,659,658,657,655,653,652,651,651,652,652,650,648,646,646,646,645,645,643,642,640,641,640,641,638,638,638,640,639,640,638,638,639,640,639,638,636,638,638,639,638,637,635,633,633,633,633,635,636,637,635,637,637,640,640,640,640,639,639,640,641,640,640,641,644,645,645,645,646,650,650,650,647,648,648,645,646,645,648,646,647,647,647,648,648,651,649,650,649,653,654,657,661,666,672,678,682,684,684,684,686,687,688,688,690,694,697,698,697,696,689,666,623,590,576,580,594,604,606,606,605,608,614,624,631,635,637,637,640,641,643,645,649,648,649,648,650,650,650,649,649,650,650,651,651,653,652,652,652,653,652,652,651,651,650,650,650,651,651,649,649,649,649,648,647,648,649,650,650,649,645,639,630,627,624,623,620,616,610,606,604,602,600,598,595,593,588,582,576,573,572,574,571,566,560,558,554,551,549,549,546,543,540,539,536,534,527,526,529,543,560,577,587,595,593,594,595,599,598,591,584,579,576,574,572,572,570,570,570,572,573,574,575,576,579,586,593,601,606,614,620,622,624,623,623,622,623,623,623,623,622,619,619,621,625,628,628,628,627,627,627,627,628,628,628,626,625,627,629,629,628,627,626,626,626,628,636,649,655,656,651,648,642,637,633,631,631,629,627,625,625,627,626,627,627,626,623,621,621,621,621,619,620,621,622,622,622,623,622,622,622,621,621,620,619,619,618,620,620,621,621,623,623,626,627,628,628,628,628,628,628,627,626,627,627,629,630,633,632,632,630,633,632,633,632,633,635,635,634,0
0,884,884,888,885,886,881,884,885,886,884,882,878,878,877,879,878,881,882,884,881,881,879,882,883,883,883,882,883,880,879,878,881,880,880,879,880,880,880,877,878,878,879,877,878,880,881,879,879,880,883,882,878,875,876,877,876,876,878,877,877,874,874,873,874,875,874,873,872,873,874,873,874,875,876,875,875,872,873,871,871,867,864,855,832,797,784,781,782,783,782,781,779,778,776,774,771,771,767,764,764,764,767,769,770,772,774,773,770,766,765,765,763,762,761,761,761,760,759,757,757,755,755,752,752,750,750,750,750,748,747,745,746,744,745,742,741,740,739,737,737,737,736,735,732,728,720,709,701,692,689,687,685,681,676,675,673,671,666,664,662,661,659,658,658,658,657,655,654,653,654,653,654,651,649,646,646,647,647,646,644,643,641,640,639,640,637,637,636,639,639,639,639,639,640,638,637,636,636,636,636,636,636,634,634,631,631,631,633,634,635,635,633,634,635,639,640,640,639,637,636,637,638,638,639,639,641,642,643,644,645,646,648,647,646,647,648,646,646,645,647,646,647,647,645,644,645,648,650,651,650,651,654,660,666,673,678,681,683,682,684,685,687,687,688,687,690,694,698,697,693,688,671,638,600,581,576,586,600,605,605,604,606,609,617,625,634,637,638,638,641,643,645,646,650,651,653,651,653,653,653,652,651,651,650,652,653,654,654,653,653,652,651,651,650,651,648,648,649,652,651,648,647,646,648,648,649,649,649,650,650,649,644,633,625,625,624,622,617,613,609,606,604,602,599,597,593,590,587,582,576,572,572,573,570,565,560,557,554,551,549,548,545,542,538,537,535,535,531,526,524,528,538,552,567,579,581,579,583,590,595,594,590,585,579,576,573,573,571,571,572,572,572,573,573,575,576,581,586,593,597,602,608,615,622,623,623,622,624,624,626,624,623,620,619,621,624,628,628,626,624,625,626,627,628,627,627,625,625,626,628,627,626,625,626,625,624,625,632,643,649,646,640,635,632,628,625,624,624,623,621,621,620,621,622,624,623,623,620,620,619,619,620,619,620,620,621,621,621,622,622,621,621,621,621,620,618,619,619,619,618,620,621,623,624,625,625,625,625,625,626,627,626,626,625,626,626,628,630,631,631,631,630,631,629,629,630,633,633,633,632,0
0,884,884,884,885,886,884,886,889,888,887,879,877,872,875,875,876,879,881,882,879,882,881,883,881,882,880,881,882,878,876,875,877,877,879,878,879,878,880,878,878,875,877,877,881,882,880,878,878,879,881,879,875,873,874,878,877,877,877,876,876,873,873,872,875,875,874,872,872,873,873,872,872,874,875,875,874,873,872,870,871,869,866,862,855,823,792,784,783,782,781,780,780,782,781,776,768,761,760,757,756,756,760,767,768,770,772,772,771,766,766,765,765,763,762,761,762,761,761,759,757,756,755,754,754,752,751,752,752,749,749,747,747,743,743,742,742,741,740,739,740,741,739,737,736,734,731,722,711,701,694,690,688,685,679,677,674,672,667,666,664,663,661,661,660,658,656,655,654,653,653,651,651,649,649,646,645,645,645,645,644,643,641,640,639,639,636,637,636,637,636,637,638,639,639,637,635,634,633,634,634,635,634,633,632,632,633,633,634,635,635,637,635,636,635,636,637,636,636,634,634,635,636,637,638,638,639,642,644,646,645,645,645,645,646,647,647,647,646,644,645,644,646,646,646,646,646,648,650,650,651,653,657,663,669,677,681,683,682,682,683,685,686,686,687,687,689,694,696,693,688,676,647,608,585,577,582,593,601,605,606,606,608,611,618,625,632,636,639,640,642,643,645,647,649,650,653,652,653,652,652,652,651,652,651,651,652,654,654,653,651,651,650,650,650,650,648,647,648,649,649,648,648,647,648,649,649,648,648,649,650,649,643,632,623,623,621,621,618,614,610,606,604,601,597,595,590,588,585,582,576,572,572,573,568,563,557,556,552,551,549,548,546,542,538,536,535,535,532,525,522,524,529,536,546,559,566,565,566,574,584,590,590,587,581,578,575,574,572,572,573,576,575,574,572,572,572,575,578,585,591,596,599,607,616,621,622,621,621,622,623,624,623,622,621,621,623,626,625,624,623,624,625,626,626,624,623,623,624,626,627,626,625,624,625,624,623,622,627,633,635,632,629,625,623,622,621,620,619,619,617,618,618,619,619,620,618,618,617,617,617,618,618,618,619,620,620,621,620,623,622,621,620,621,620,618,617,619,620,620,618,620,620,622,623,624,625,624,623,625,627,628,626,624,623,625,627,630,631,631,630,631,630,630,629,630,632,634,633,631,630,0
0,882,881,882,886,886,884,886,891,887,885,877,879,875,877,877,879,880,882,882,882,882,882,881,878,877,875,875,875,875,877,879,879,878,878,877,879,878,881,879,879,875,876,877,881,879,877,876,877,877,879,876,875,872,873,875,875,877,876,875,875,872,874,874,876,874,873,870,871,872,874,873,874,874,874,873,873,872,872,871,871,868,866,862,860,844,804,788,784,783,782,781,780,782,783,779,763,757,757,760,754,757,761,768,769,772,772,773,771,768,769,766,765,763,763,761,761,761,762,760,758,757,756,755,755,754,754,753,753,749,747,747,747,745,744,744,743,741,741,740,741,741,740,739,739,738,737,731,721,711,704,698,692,686,681,678,676,673,669,668,666,665,663,662,662,659,657,655,655,654,652,650,649,648,649,647,646,644,644,644,644,643,642,639,638,637,637,636,636,635,635,635,636,637,637,636,634,633,632,632,632,633,632,631,630,631,633,634,634,633,634,635,635,634,633,633,635,634,633,632,632,633,635,636,638,637,639,640,644,644,643,642,642,644,645,645,645,645,645,643,643,643,646,646,645,645,646,647,650,650,653,655,660,666,671,678,680,681,680,681,684,685,685,684,685,685,687,690,694,690,682,658,618,588,576,580,592,600,602,604,606,608,610,615,619,625,631,635,637,640,643,645,647,648,649,648,650,650,651,651,652,651,650,650,649,648,649,652,653,652,649,649,648,649,649,650,648,647,647,647,648,647,649,648,647,648,649,647,646,646,648,648,643,632,623,622,620,618,616,613,612,609,606,601,598,593,588,585,584,581,576,572,572,572,569,564,559,556,553,550,549,547,544,539,535,534,533,533,530,523,521,521,524,528,534,545,555,557,556,559,569,580,586,586,581,577,575,574,573,572,574,576,578,576,573,571,570,572,574,581,588,594,595,600,612,622,624,624,623,622,623,623,624,623,622,623,623,625,624,623,623,623,624,625,626,624,623,623,624,625,625,624,623,622,624,623,622,621,623,623,624,623,622,620,618,618,618,617,616,616,617,618,618,618,618,619,619,618,616,617,616,616,617,617,618,618,619,619,620,622,621,620,619,620,619,618,618,619,619,620,619,620,620,621,622,623,624,623,623,624,626,626,625,624,624,624,626,629,630,629,629,630,632,630,629,629,632,635,633,632,630,0
0,880,879,880,884,884,884,884,891,885,885,877,880,875,879,878,880,881,882,883,881,882,880,881,879,879,878,877,875,876,879,881,882,880,879,878,879,880,881,880,880,879,879,879,880,878,876,874,875,875,876,876,874,873,873,876,877,876,874,874,874,874,873,874,874,873,871,872,871,873,872,871,871,871,873,871,871,870,868,867,867,866,864,861,857,847,814,792,784,780,778,777,776,783,779,776,764,761,758,757,757,759,761,766,767,769,769,770,768,766,767,765,764,763,763,763,762,762,762,760,758,756,756,755,756,755,754,753,752,750,749,749,747,745,743,744,743,742,741,742,741,741,739,740,740,740,739,736,730,722,714,708,699,692,685,681,677,675,672,672,668,666,664,663,662,658,656,655,655,653,651,649,648,649,650,649,646,645,645,645,642,641,641,640,639,637,636,635,635,635,634,634,634,635,635,635,634,633,631,631,633,635,633,631,630,631,630,631,633,635,634,634,633,634,633,632,633,633,633,632,632,633,633,634,638,638,638,639,641,644,643,643,642,644,645,644,643,643,644,642,643,643,645,645,646,646,646,648,650,652,656,660,665,669,673,678,681,682,681,682,683,684,683,683,683,683,683,686,689,684,666,629,595,578,575,586,599,603,603,607,611,615,617,622,625,631,632,636,637,642,644,645,647,648,649,647,648,647,648,648,650,650,649,648,647,646,646,649,649,649,646,647,647,650,648,647,645,644,645,644,646,645,646,646,645,646,646,646,644,644,645,645,641,635,625,621,619,617,616,614,614,610,604,599,597,592,586,583,583,580,574,571,571,571,567,564,559,555,551,548,547,546,543,539,535,533,532,532,527,522,519,519,521,524,528,534,544,552,552,549,554,565,579,584,582,579,577,574,572,570,572,575,578,576,572,570,570,571,572,576,582,591,594,598,602,613,622,625,624,622,622,623,623,623,621,622,621,623,621,621,621,622,622,623,622,622,621,622,622,622,622,622,621,621,622,622,622,622,622,621,621,620,619,616,615,615,615,614,614,615,616,617,617,617,617,618,617,616,615,616,616,616,616,616,616,617,618,618,618,620,619,619,619,619,617,618,618,619,618,619,618,618,618,620,621,622,622,623,623,625,625,625,625,626,626,627,628,630,628,628,627,629,630,630,629,631,631,633,632,631,630,0
0,881,881,883,884,882,881,881,886,881,883,880,885,881,883,880,883,883,883,884,882,881,881,878,878,878,877,875,873,876,880,883,883,880,876,874,876,880,879,878,879,881,880,878,877,876,875,875,876,875,877,875,875,875,876,877,876,874,871,874,874,873,872,874,872,871,870,874,873,874,872,871,871,871,873,873,873,870,868,865,865,863,857,847,831,815,809,800,789,778,769,767,768,769,767,765,771,770,766,759,762,762,764,766,768,769,770,770,769,768,768,767,764,763,761,762,761,761,761,759,758,756,756,756,757,755,755,754,754,751,748,748,748,748,747,746,745,744,742,741,739,738,738,738,739,738,738,737,735,730,724,718,710,703,695,689,683,679,677,675,672,668,667,664,664,659,658,656,655,653,652,650,650,651,651,649,647,646,646,645,643,640,640,639,640,638,637,635,634,633,634,633,633,633,633,633,633,633,633,632,633,633,633,631,631,630,628,627,630,631,631,631,631,632,632,634,634,635,634,634,633,634,634,634,637,637,638,637,639,642,642,641,640,641,642,642,642,642,643,642,643,642,644,643,644,644,646,649,653,656,659,663,668,671,674,677,679,680,680,681,683,684,683,683,682,679,678,682,684,671,638,601,582,576,583,597,606,608,607,610,616,621,624,626,628,630,632,633,634,636,637,639,641,643,644,644,644,643,643,643,646,646,645,643,644,645,646,647,646,645,644,645,646,647,646,645,644,643,643,643,645,644,644,643,643,643,644,643,641,640,641,642,641,636,625,619,618,617,615,614,614,610,603,597,595,591,586,583,583,580,574,571,571,570,567,564,560,555,550,547,544,542,540,538,535,533,532,531,527,521,518,517,518,521,526,530,538,549,552,546,545,552,566,578,582,579,577,574,572,569,571,572,574,572,569,569,569,571,571,574,579,588,593,596,598,604,614,622,626,625,625,624,624,622,620,621,620,622,621,622,621,621,621,622,623,622,622,622,621,620,619,619,618,620,622,623,623,623,623,621,621,620,619,617,616,615,613,612,613,614,616,617,618,616,616,617,617,616,615,615,615,615,616,614,615,614,616,616,616,616,618,619,618,618,618,618,618,617,618,618,618,617,618,620,621,621,621,622,622,622,623,624,625,626,626,626,627,628,627,627,627,628,630,630,629,627,629,632,634,634,633,0
0,885,882,882,881,878,876,876,881,878,881,882,885,882,883,880,882,882,883,881,879,878,879,879,878,879,878,878,878,879,880,879,880,879,877,874,874,877,876,877,877,879,878,876,876,876,875,875,875,876,875,874,874,875,876,877,875,872,870,872,873,874,872,873,870,871,869,874,873,873,870,870,870,870,870,871,871,869,865,856,848,840,830,814,801,794,794,789,780,768,761,760,764,766,766,767,772,772,768,760,765,765,767,767,768,768,769,770,770,769,768,767,766,765,763,762,760,761,760,759,758,758,758,759,758,755,753,754,754,752,750,750,750,749,746,745,744,744,743,742,739,739,738,739,738,737,737,735,735,732,729,724,719,714,707,700,693,688,683,679,673,668,667,665,663,660,658,657,655,653,653,652,652,651,649,648,647,647,645,644,642,639,638,638,638,637,636,636,634,632,632,632,633,632,631,631,632,631,631,630,632,632,633,632,631,628,626,626,628,629,629,629,629,631,633,636,635,635,635,635,633,634,634,634,635,637,637,637,639,642,642,641,640,642,642,642,642,642,644,644,644,644,644,643,644,645,648,652,654,660,662,667,670,673,675,677,679,680,680,681,683,683,683,682,679,676,674,679,673,647,605,583,575,581,594,606,611,614,613,614,614,616,617,620,622,622,622,623,624,626,626,629,631,633,635,636,636,636,635,635,635,636,636,636,638,639,639,640,639,639,639,639,641,641,642,641,640,638,639,641,643,642,640,638,639,640,641,640,640,639,639,639,639,635,624,615,615,615,613,613,611,607,600,595,593,590,586,583,582,581,575,572,569,568,564,561,556,552,549,547,544,541,539,538,535,533,532,531,526,521,519,518,519,519,524,526,533,542,549,544,540,542,553,569,578,580,576,575,571,569,570,572,572,568,565,566,568,570,571,573,576,583,589,592,595,601,608,617,623,625,625,625,624,623,621,621,619,621,620,622,621,622,621,622,621,621,621,621,620,620,619,619,618,621,623,624,624,623,623,622,621,620,618,617,615,614,612,613,613,614,614,615,616,615,614,615,615,614,613,614,614,614,616,616,616,616,616,616,615,616,617,618,617,617,617,618,618,619,619,619,617,617,618,622,623,623,622,622,622,623,623,625,624,626,626,626,627,628,626,627,626,628,628,630,629,627,626,630,632,633,631,0
0,889,884,884,881,877,873,873,878,874,877,881,884,880,879,880,884,882,883,880,880,879,880,880,879,881,880,880,879,879,880,877,875,875,877,876,876,876,877,875,876,877,876,874,874,875,874,875,875,875,875,874,874,874,874,874,872,871,870,871,872,874,872,870,868,871,870,873,872,872,870,870,872,871,869,869,869,868,860,837,820,808,799,792,788,787,793,791,783,773,773,772,769,764,769,770,770,769,769,765,766,767,769,769,770,770,771,771,770,769,768,768,767,765,763,761,760,760,760,759,758,758,758,758,757,755,754,754,754,752,750,751,752,750,748,746,745,746,744,742,740,739,739,738,737,736,736,733,734,732,733,729,726,719,715,709,705,699,695,688,681,676,673,670,666,662,659,657,655,654,653,653,652,652,649,647,645,644,644,643,643,640,638,638,638,637,636,637,636,633,633,632,632,631,631,630,631,629,628,628,629,629,630,629,629,627,626,625,626,627,628,627,627,627,629,632,634,634,635,636,635,635,635,635,636,637,639,640,641,642,640,640,639,640,641,641,641,641,642,642,642,642,644,642,645,645,650,654,657,661,663,666,669,671,674,676,678,678,680,681,684,684,685,682,678,674,672,670,650,611,583,572,575,589,605,613,618,623,619,610,603,602,603,605,606,606,607,607,609,610,610,612,615,619,621,622,623,624,624,623,623,623,623,622,625,627,627,628,628,628,628,629,630,629,632,633,633,632,631,634,637,636,636,633,634,635,638,642,646,648,643,639,635,628,616,609,611,612,611,611,609,605,598,593,592,590,586,582,581,581,577,572,568,564,562,559,555,550,548,546,544,540,539,538,536,534,531,530,527,523,521,519,518,518,521,524,529,537,546,547,540,538,543,555,569,577,578,576,572,569,570,570,569,565,563,563,564,566,568,572,576,581,585,589,594,597,603,610,619,623,626,626,626,624,623,623,624,624,623,623,623,622,622,621,621,622,622,622,621,621,619,619,619,621,623,625,625,624,623,622,622,621,620,618,616,615,613,613,613,614,614,615,615,614,615,615,616,614,614,614,614,614,615,616,616,616,615,615,615,615,615,616,616,617,617,617,617,618,618,618,618,618,618,620,622,623,622,622,621,622,623,624,624,624,625,624,624,625,626,627,627,628,629,631,628,625,626,631,632,631,628,0
0,884,882,884,880,878,874,874,875,874,876,879,878,877,876,880,882,881,883,881,881,882,880,882,879,881,881,881,881,878,880,877,875,875,877,877,877,876,876,874,874,875,874,874,872,876,873,874,872,873,872,874,873,873,872,871,871,871,871,871,871,873,871,869,869,873,871,871,870,870,869,870,871,870,868,866,864,862,849,816,800,791,787,785,786,788,796,791,783,775,782,783,770,771,776,773,769,763,766,766,768,769,769,769,769,769,769,769,768,768,766,766,766,765,764,761,761,759,759,759,760,760,759,759,757,754,752,753,752,752,752,753,752,748,745,744,745,745,744,744,742,741,740,738,736,735,735,733,732,731,734,732,730,723,720,716,714,709,704,699,693,687,681,675,669,663,659,658,657,655,652,653,651,651,648,646,644,645,643,642,641,639,639,638,637,636,635,636,635,633,632,631,631,630,631,629,630,629,626,627,628,630,629,628,626,626,625,626,626,626,626,626,626,626,629,632,633,634,635,637,636,636,635,636,637,637,639,642,642,642,639,639,640,641,642,640,640,639,640,642,643,644,644,645,648,648,650,654,657,660,662,665,670,672,674,675,677,678,679,681,684,686,686,682,676,673,669,651,614,584,571,570,582,601,615,619,627,633,620,598,587,584,583,584,584,586,588,589,590,592,592,595,597,600,603,604,605,606,606,606,606,606,605,607,608,610,611,614,614,615,615,616,616,615,615,616,616,615,616,618,619,620,620,621,623,625,628,637,651,667,674,662,639,618,601,603,608,610,608,608,607,604,597,593,592,589,584,581,580,581,577,571,565,561,559,555,553,549,548,547,548,546,543,542,539,538,535,534,529,526,522,520,517,515,517,520,526,531,539,543,539,535,537,544,557,571,578,580,574,570,568,567,565,563,561,563,563,564,565,568,572,575,580,586,592,596,598,603,613,621,623,625,625,624,623,623,624,624,623,622,622,621,620,620,620,622,621,622,621,621,619,619,620,622,622,623,622,623,622,622,622,620,619,618,615,615,613,615,614,615,615,615,614,613,615,615,616,614,614,614,615,615,615,616,616,617,615,616,616,616,615,615,615,616,616,617,617,618,617,617,618,618,619,620,623,626,624,623,621,622,623,624,624,625,625,625,625,627,628,627,627,628,629,628,625,624,626,631,631,629,626,0
0,883,884,884,879,879,878,879,880,879,878,879,879,877,874,876,879,880,881,883,882,883,880,881,879,881,882,882,880,877,878,878,877,874,876,877,879,878,878,875,874,873,871,871,871,877,876,875,872,873,873,875,874,870,870,869,872,872,874,871,871,871,869,867,869,872,871,870,870,871,870,869,871,870,869,865,864,861,849,812,797,789,787,786,788,790,799,796,797,794,799,792,776,769,771,770,767,773,775,770,768,768,768,770,769,769,767,767,767,766,765,765,766,765,763,762,762,760,759,759,760,761,760,758,756,755,753,753,753,753,752,751,750,746,743,743,745,746,745,743,742,741,739,737,734,734,735,735,733,732,735,733,730,726,725,723,721,715,711,709,706,702,694,688,679,671,665,663,659,656,652,653,651,650,648,646,644,644,643,642,640,639,639,638,638,637,636,635,634,634,633,632,632,631,631,630,629,628,626,626,626,628,629,628,625,623,623,626,626,626,626,626,625,625,627,628,630,631,633,635,637,637,637,637,638,638,639,641,641,641,639,637,639,639,640,639,639,638,638,640,642,642,643,646,648,649,651,656,658,659,659,662,667,671,674,675,676,678,681,684,686,688,687,682,678,674,660,620,584,568,566,574,597,612,621,623,634,641,621,590,573,567,566,565,564,566,568,569,569,570,572,574,576,577,578,580,583,584,584,583,583,584,586,588,589,590,591,592,594,596,598,599,598,598,598,599,600,600,601,602,603,603,604,605,608,611,613,619,628,643,661,672,646,607,578,589,601,605,605,605,604,601,596,592,591,589,585,581,580,578,574,568,564,560,557,554,553,551,550,550,552,552,552,552,553,551,549,548,547,543,533,525,519,516,516,518,523,525,532,540,539,535,533,536,543,557,571,579,576,571,566,562,559,558,558,561,560,561,563,566,568,572,578,583,589,592,594,597,603,613,619,623,624,623,623,625,627,626,625,623,621,620,620,620,620,621,622,622,622,621,619,619,620,622,621,620,618,619,619,621,621,620,621,620,619,618,616,615,614,615,616,615,615,614,614,614,615,615,615,615,616,615,614,614,615,615,616,616,617,616,615,615,616,618,618,619,618,617,616,616,618,619,619,619,621,623,622,620,620,620,621,622,624,624,625,626,626,627,628,627,627,626,628,625,623,623,627,630,630,629,628,0
0,873,877,879,877,879,880,881,878,879,880,881,883,880,878,878,879,880,878,880,876,877,877,879,878,876,878,880,882,877,877,875,878,876,877,876,875,873,874,874,873,873,869,869,870,875,876,878,874,871,870,872,872,870,871,870,872,870,872,870,870,868,868,868,870,872,869,869,870,871,870,869,870,869,868,865,863,861,849,815,798,790,788,788,792,800,813,817,818,816,807,791,779,778,777,768,762,768,775,769,769,768,769,769,767,766,765,766,766,764,764,763,765,764,764,763,763,759,758,758,760,761,760,759,756,754,753,753,754,753,751,749,748,745,743,743,744,744,743,742,741,739,738,737,734,733,735,736,734,732,732,731,728,726,726,726,724,719,713,712,710,709,703,699,688,679,672,668,663,659,655,655,652,650,647,647,646,645,643,640,638,638,639,639,639,637,634,633,632,633,631,631,631,632,631,629,628,627,626,628,629,629,628,627,623,622,622,625,626,626,626,625,624,625,626,628,629,630,631,633,635,636,636,636,637,637,637,638,639,640,640,639,638,637,637,638,637,636,638,640,642,643,643,648,649,651,653,657,658,659,659,661,666,671,673,674,676,679,683,686,688,689,685,680,676,671,637,591,568,561,567,586,610,619,624,627,642,645,626,591,567,557,552,550,549,549,550,551,551,552,552,555,557,557,557,559,562,563,562,560,561,563,564,568,569,570,569,570,571,574,576,578,576,576,576,577,577,578,580,581,582,583,585,588,591,593,594,597,600,606,614,620,611,587,564,563,587,598,600,601,600,599,595,591,589,587,584,579,578,575,571,566,562,560,556,555,554,555,557,558,561,563,565,565,567,567,568,567,568,566,559,543,529,521,519,519,521,523,526,534,538,536,532,533,536,543,554,567,575,576,569,562,555,554,553,557,558,560,560,564,566,570,575,580,585,589,592,594,598,607,615,620,621,622,622,623,623,623,622,621,618,618,618,620,620,620,620,621,621,622,620,620,621,623,622,620,617,618,619,620,618,617,618,619,619,618,616,616,614,615,616,616,615,614,613,613,613,614,615,615,615,614,614,614,614,616,617,617,617,616,616,616,617,617,618,619,619,617,616,615,617,619,620,621,621,622,621,620,620,620,622,622,624,623,623,624,625,628,630,630,627,629,629,628,624,625,626,628,627,627,626,0
0,875,873,875,873,880,880,878,874,876,878,878,882,879,878,877,878,879,876,877,875,876,878,878,877,873,875,879,880,879,875,874,875,876,879,876,875,874,876,876,874,872,870,869,870,871,874,876,875,870,869,871,873,870,871,870,873,870,871,869,868,867,868,869,867,868,866,869,870,872,871,870,870,868,867,864,862,861,850,819,800,793,787,789,796,819,829,825,825,833,822,802,784,779,773,768,767,774,773,770,768,768,769,768,765,763,763,765,764,763,762,762,763,763,764,764,763,760,758,758,759,758,757,756,754,753,753,754,754,752,749,748,748,745,743,742,743,743,742,739,738,738,738,736,734,733,735,735,735,732,731,729,728,727,728,728,727,723,720,717,714,711,708,707,701,693,684,677,670,666,662,659,655,653,650,648,646,645,643,641,639,638,639,639,637,636,634,634,632,633,630,631,629,630,629,629,627,626,626,627,629,626,626,624,623,623,622,623,624,625,625,623,623,624,625,626,627,628,629,631,634,635,634,633,635,636,636,636,637,639,639,639,637,636,636,636,636,636,637,638,640,642,644,649,649,652,654,657,658,659,661,663,667,670,672,673,676,680,685,688,689,686,680,677,673,657,609,574,562,562,574,598,615,620,623,627,645,644,629,603,570,552,542,538,538,537,535,535,535,536,536,537,540,540,540,541,544,545,543,542,542,544,545,546,548,549,549,550,551,554,555,554,553,553,554,554,554,554,556,557,559,560,563,565,567,569,569,570,572,575,579,582,579,569,558,550,558,581,594,600,599,596,592,589,587,585,581,577,575,573,570,563,560,558,558,559,562,564,567,568,571,572,574,573,574,575,577,575,574,574,574,571,557,536,527,522,520,521,523,529,533,535,531,531,531,534,539,549,564,575,576,568,560,554,551,553,554,557,558,563,565,569,575,578,582,585,590,591,591,597,608,617,620,621,622,623,624,624,623,621,619,619,618,619,619,619,619,620,621,621,621,622,623,624,623,621,619,619,619,620,620,618,617,616,617,618,616,615,614,615,616,617,616,615,614,613,614,613,615,615,616,615,615,614,615,616,618,617,618,617,618,617,618,619,619,618,618,618,617,616,617,620,620,620,620,621,620,620,621,621,622,622,624,622,624,624,624,626,628,628,628,629,629,628,626,627,628,629,628,626,626,0
0,876,874,871,872,880,879,878,872,873,873,873,878,877,880,876,877,877,874,872,871,875,879,879,877,874,875,878,880,880,876,875,874,875,875,874,872,871,872,871,870,871,871,870,869,869,870,872,873,869,869,870,871,870,871,871,871,870,870,869,868,868,869,869,866,865,864,867,868,872,872,870,867,866,866,864,861,860,848,817,798,792,788,794,816,837,833,819,816,824,824,804,784,775,769,768,768,772,769,769,768,769,769,767,763,762,763,765,763,763,762,763,762,762,762,762,761,759,759,758,757,756,756,756,754,752,752,752,751,748,747,747,748,744,743,741,742,741,741,738,736,737,737,736,734,734,733,732,732,730,729,728,728,728,727,727,726,725,722,720,716,713,711,711,708,703,695,688,681,675,670,665,660,657,652,650,648,647,644,642,640,640,639,639,637,637,635,635,633,634,631,631,629,629,627,627,626,625,627,629,631,628,625,622,622,623,622,623,624,625,624,622,623,624,625,626,626,628,628,631,633,635,633,633,633,635,634,634,636,638,637,638,635,635,634,634,634,635,637,638,641,643,645,650,652,655,656,657,660,662,664,667,668,670,671,673,676,681,685,687,686,683,679,675,662,629,584,566,560,569,588,609,616,620,623,630,645,637,625,617,583,550,532,524,524,524,524,524,524,523,523,523,525,526,528,530,530,530,528,528,529,530,530,530,530,530,530,532,534,536,537,536,534,534,534,533,533,532,534,534,536,537,539,540,541,542,543,544,545,547,549,551,551,548,544,540,538,548,564,580,588,591,589,586,585,583,579,574,573,571,568,561,558,559,563,566,568,570,571,572,573,575,575,574,574,575,576,576,575,575,577,579,580,562,538,526,522,522,523,526,528,533,531,532,530,532,532,536,546,562,572,574,567,560,554,551,550,552,554,558,562,568,573,577,581,583,588,590,591,593,601,611,617,619,620,622,623,622,620,619,619,619,619,619,619,619,617,617,617,619,620,622,623,624,624,624,623,621,620,620,620,618,616,615,616,616,615,614,613,616,616,616,615,615,614,614,615,615,615,615,616,615,615,615,616,617,617,616,616,617,619,619,618,619,618,619,617,618,619,620,619,620,620,621,620,621,621,622,621,622,622,622,624,624,626,625,626,626,627,628,627,629,628,628,628,628,631,631,631,626,627,0
0,883,878,872,871,877,877,878,873,873,870,870,876,878,879,876,876,877,874,872,873,877,880,878,875,873,874,877,879,880,876,876,874,875,874,874,872,873,871,869,868,872,874,873,870,870,870,870,871,871,872,872,870,868,867,868,868,869,871,870,868,867,869,868,866,864,864,865,867,870,872,869,866,865,865,864,863,858,848,813,796,790,785,800,819,825,821,817,815,817,817,807,788,770,769,774,773,772,769,769,767,768,768,766,764,763,763,765,764,765,764,763,761,762,761,761,759,759,759,758,757,755,755,755,754,753,753,752,751,748,748,747,747,743,741,739,740,740,740,737,735,736,737,735,734,734,733,732,732,731,731,730,730,729,728,727,726,726,725,723,721,718,717,715,714,711,706,699,692,685,680,673,667,661,656,651,648,646,645,643,642,641,640,638,637,637,635,635,633,633,631,630,629,628,627,628,628,626,627,628,629,627,624,621,621,623,622,622,622,623,622,621,621,623,623,624,623,624,626,630,632,634,632,630,631,633,634,633,634,636,636,637,636,636,636,634,634,634,637,639,642,645,649,653,654,656,656,659,661,664,666,668,669,671,672,675,678,682,683,684,683,682,680,671,642,598,570,562,564,580,602,614,617,620,624,631,642,630,623,626,601,553,526,512,510,509,509,510,512,511,510,510,512,512,514,515,516,517,516,517,517,517,518,518,516,515,514,515,516,521,522,522,519,519,519,519,519,519,519,520,521,521,520,520,521,521,523,524,525,526,530,533,535,534,532,531,528,530,535,545,556,565,573,578,581,579,577,572,571,570,568,562,560,562,568,570,572,572,574,574,575,574,573,572,571,573,575,576,576,576,576,578,582,576,551,532,524,523,523,524,524,526,527,528,529,530,530,531,535,544,555,565,567,564,558,551,549,548,551,554,559,564,570,574,577,579,583,587,589,590,594,604,613,618,620,621,622,621,620,620,621,622,622,620,619,617,616,616,617,618,620,621,623,623,623,624,624,622,621,619,621,619,618,615,615,615,616,614,614,615,615,616,615,615,615,615,616,616,616,615,616,616,616,616,617,617,617,616,617,618,619,620,620,621,620,621,619,620,622,622,622,620,621,621,622,622,623,622,623,623,622,621,622,624,628,627,627,625,625,627,630,630,629,629,631,633,634,634,634,631,633,0
0,885,887,877,878,877,879,878,872,873,873,875,879,878,879,875,875,875,872,870,870,875,877,874,874,873,875,876,877,877,876,876,873,873,873,875,872,871,870,869,870,873,874,872,870,872,873,872,871,872,872,872,869,868,868,868,868,869,871,871,870,870,869,868,866,866,866,866,867,868,868,866,864,864,865,866,865,862,850,807,791,786,788,810,789,793,798,836,829,799,797,789,785,771,778,776,769,768,768,769,769,768,767,766,765,765,764,765,766,766,765,763,763,762,760,760,759,759,758,757,757,755,756,755,753,752,750,750,748,745,745,745,745,742,740,738,738,739,738,737,736,735,736,736,735,735,733,732,731,730,731,731,731,729,728,728,726,726,725,724,723,723,721,718,715,714,711,706,700,695,689,682,675,668,660,655,651,649,646,645,644,643,641,640,638,638,636,635,633,632,631,630,629,629,629,629,628,626,627,628,628,628,625,622,621,622,622,623,623,623,621,620,621,621,622,621,620,622,625,628,628,630,630,630,629,631,632,633,633,636,636,637,636,637,636,635,635,637,639,641,643,646,649,652,654,656,656,659,661,664,664,664,665,668,672,676,679,680,682,681,681,681,676,654,608,576,563,563,571,590,608,617,620,623,626,632,640,628,624,631,617,560,521,501,0,0,0,0,500,0,0,0,0,0,0,500,501,503,505,506,505,504,504,504,504,503,502,503,502,504,506,507,508,508,509,510,509,508,507,509,509,509,507,508,508,507,509,509,511,512,517,520,522,522,522,521,520,520,520,523,528,535,545,556,567,573,574,572,571,568,565,563,564,568,572,572,571,570,571,572,573,572,570,571,571,572,572,574,574,573,573,576,580,582,562,540,529,525,524,523,523,523,524,526,527,528,530,530,531,534,538,547,552,556,555,552,550,547,549,552,558,561,566,571,574,575,578,583,587,589,591,596,604,612,616,619,619,619,619,619,621,622,622,621,619,619,616,616,617,620,621,621,622,622,622,622,621,620,620,619,619,619,619,617,615,614,616,615,615,614,614,615,614,613,614,615,617,617,617,615,614,615,616,617,617,617,617,616,617,617,617,619,620,621,621,621,620,621,623,623,622,621,622,622,623,623,624,623,623,624,623,623,624,625,627,626,626,625,626,629,631,631,630,631,632,634,634,635,636,635,638,0
0,878,879,873,877,876,874,873,868,870,871,877,876,875,877,878,875,872,870,872,875,878,877,872,871,870,874,875,876,875,874,874,871,872,873,877,874,873,871,872,873,876,877,874,872,872,874,872,871,870,871,871,869,869,869,867,867,867,871,871,869,868,866,867,866,868,868,867,867,866,865,865,865,865,864,864,865,863,855,810,794,788,793,808,781,787,797,847,830,774,772,769,774,771,781,774,769,769,769,771,770,769,766,766,766,766,764,764,766,764,764,763,763,762,760,759,759,758,757,756,756,753,754,752,752,751,750,750,747,746,744,745,744,741,738,737,736,737,737,737,736,735,735,735,735,735,735,734,733,731,732,733,734,732,731,729,728,726,726,724,724,724,724,720,719,718,717,712,707,702,695,689,683,678,669,661,655,650,648,647,645,644,642,641,639,637,636,634,633,631,630,629,629,629,629,629,628,625,624,625,626,626,623,622,622,623,623,623,623,622,621,619,619,619,619,619,619,621,623,626,626,628,629,629,630,631,631,633,633,635,636,637,638,638,638,635,635,636,641,643,644,647,650,653,653,655,654,657,659,660,659,659,662,666,671,674,678,677,679,678,680,678,664,623,582,565,561,565,580,596,611,616,622,624,626,626,639,628,627,633,629,573,518,0,0,0,0,0,0,0,0,0,0,0,0,0,0,0,0,0,0,0,0,0,0,0,0,0,0,0,0,0,0,0,0,0,0,0,0,0,0,0,0,0,0,0,0,0,0,500,505,508,511,513,514,514,513,513,513,512,512,514,519,526,537,549,559,565,567,567,566,566,569,571,573,573,573,571,571,572,572,570,570,570,572,572,573,573,572,571,570,572,575,578,571,550,534,527,525,523,523,522,523,524,526,527,529,529,529,530,532,536,540,543,546,548,547,546,549,552,557,558,563,566,569,570,573,578,584,587,589,591,597,606,613,617,619,620,621,621,621,621,621,621,619,619,618,618,619,621,623,622,622,621,621,620,620,619,620,620,618,618,619,616,615,614,616,615,616,616,615,615,616,615,615,615,617,617,617,615,615,616,617,617,617,618,619,619,619,618,618,619,621,622,622,622,622,621,623,622,621,621,623,624,624,625,627,626,625,624,625,624,625,625,624,624,625,626,627,630,632,633,630,632,632,634,632,635,636,636,636,0
0,877,877,874,879,878,874,871,864,870,872,877,874,871,871,871,868,867,868,872,875,875,874,870,870,868,872,873,874,873,871,872,868,869,871,873,873,871,872,874,875,874,873,873,871,871,872,871,868,869,869,871,869,872,869,868,869,869,872,869,870,868,867,864,864,866,867,868,867,866,865,866,866,866,865,863,863,862,855,813,797,791,800,802,780,788,799,850,822,774,770,769,771,769,772,768,766,768,770,771,768,766,765,765,764,764,763,765,765,765,763,762,762,761,760,759,759,758,758,755,754,751,752,750,749,748,748,747,745,745,743,744,743,742,738,737,736,738,737,738,737,737,736,737,737,736,735,734,733,732,732,733,733,731,730,728,727,727,726,725,724,723,722,721,721,721,720,716,711,709,702,696,687,682,676,672,666,660,653,652,648,647,644,643,640,637,636,635,634,632,631,631,629,628,628,628,627,624,623,625,624,624,622,623,624,625,623,624,623,621,619,618,618,618,619,619,618,619,620,622,622,624,626,629,629,631,631,632,631,632,633,635,637,638,637,635,636,639,645,646,646,649,651,654,654,654,654,657,657,656,654,654,658,663,668,672,675,675,677,676,679,671,642,593,568,561,562,570,586,601,612,617,621,625,623,621,627,626,627,634,640,593,514,0,0,0,0,0,0,0,0,0,0,0,0,0,0,0,0,0,0,0,0,0,0,0,0,0,0,0,0,0,0,0,0,0,0,0,0,0,0,0,0,0,0,0,0,0,0,0,0,0,0,0,500,502,502,501,501,500,500,502,503,504,509,518,532,545,553,557,561,565,569,572,573,574,572,570,569,569,570,570,570,572,572,573,572,572,571,569,569,570,574,576,575,561,541,531,525,524,525,525,525,525,525,526,527,528,528,529,530,532,534,537,539,542,543,545,547,551,555,557,559,562,565,567,570,574,578,582,585,587,588,596,606,614,618,620,620,620,620,620,620,620,619,620,620,620,620,622,623,622,622,621,620,618,618,618,619,619,617,618,618,617,616,616,617,617,617,617,616,616,617,617,616,616,617,617,616,615,614,615,617,618,618,620,621,621,620,621,620,621,621,622,622,622,622,622,623,623,622,623,625,626,624,625,627,627,625,622,625,625,628,625,624,624,627,630,630,631,628,629,628,630,629,629,629,636,638,640,637,0
0,868,874,875,876,877,878,878,869,870,869,873,871,872,872,870,867,867,868,871,874,875,878,874,871,867,871,873,874,870,868,870,871,873,872,872,873,872,872,872,871,871,869,872,870,870,868,869,867,866,868,871,872,872,869,868,867,869,870,868,868,866,865,864,865,866,867,866,867,866,866,865,866,866,865,862,862,861,849,817,794,793,797,801,788,798,810,847,812,775,771,770,770,768,764,764,767,768,770,768,767,765,764,764,762,761,762,763,764,763,761,761,761,760,760,759,760,760,759,756,751,748,749,749,749,748,750,748,747,746,745,746,744,742,738,738,737,739,737,738,737,736,736,736,736,735,735,735,734,732,732,731,730,729,728,728,728,726,725,724,722,720,720,720,720,719,718,717,714,713,708,703,693,687,682,678,672,666,659,657,651,648,645,643,641,637,636,634,634,633,633,632,630,628,627,627,627,624,622,623,622,621,620,622,623,624,623,624,621,618,616,616,618,618,0,620,619,619,620,621,621,622,625,629,632,633,633,633,632,632,633,635,636,636,636,635,635,637,644,646,647,651,653,657,656,656,653,654,653,652,650,651,655,661,667,670,672,673,675,673,674,658,614,575,562,560,566,576,590,605,613,617,620,622,620,610,622,618,625,635,654,0,0,0,0,0,0,0,0,0,0,0,0,0,0,0,0,0,0,0,0,0,0,0,0,0,0,0,0,0,0,0,0,0,0,0,0,0,0,0,0,0,0,0,0,0,0,0,0,0,0,0,0,0,0,0,0,0,0,0,0,0,0,0,0,0,501,513,525,534,545,557,567,571,572,573,572,571,569,569,569,569,569,569,569,571,571,570,571,569,569,568,572,573,577,569,549,535,527,525,525,526,525,525,525,527,527,527,528,529,531,531,534,534,536,537,539,541,545,548,551,552,554,557,561,564,566,569,574,579,583,587,588,592,600,612,619,622,621,621,621,621,620,619,619,619,620,620,621,620,621,620,621,620,620,619,620,619,620,618,618,618,618,617,617,617,617,616,616,617,616,617,618,619,618,617,617,617,617,616,617,617,619,618,619,621,622,623,623,623,624,624,624,625,624,624,624,625,626,626,624,624,626,628,625,624,625,626,627,624,626,624,627,624,627,626,630,630,630,629,628,628,629,633,632,632,632,637,639,641,639,0
0,873,876,880,877,878,882,881,872,870,870,875,875,875,873,868,866,869,871,871,869,871,874,873,871,870,871,871,871,869,867,868,871,873,872,873,874,873,873,874,871,869,867,870,869,871,869,869,866,866,868,872,872,871,867,868,866,868,868,868,869,868,867,865,866,866,866,866,867,867,867,865,865,866,866,865,862,858,845,807,793,790,797,803,810,819,831,839,808,801,792,789,775,771,764,767,769,767,766,765,765,763,763,763,761,759,760,761,763,762,761,761,760,760,760,758,758,758,758,756,753,750,750,749,749,749,749,747,746,746,745,744,743,742,739,738,738,740,738,738,736,736,736,737,736,735,734,734,734,733,732,730,728,728,727,727,724,723,722,723,721,721,721,721,719,717,715,715,715,715,713,706,697,691,687,683,678,674,667,661,654,650,647,646,642,639,637,636,634,633,633,633,631,628,626,626,625,624,622,622,622,621,621,621,622,622,620,620,618,616,616,618,620,622,623,623,622,621,622,622,623,623,625,626,628,631,632,632,632,631,631,632,632,634,635,637,638,642,646,648,649,651,654,656,655,653,651,651,650,650,650,651,654,660,666,670,671,671,670,668,662,632,587,566,559,563,572,583,593,606,613,618,621,624,621,611,615,617,627,642,665,0,0,0,0,0,0,0,0,0,0,0,0,0,0,0,0,0,0,0,0,0,0,0,0,0,0,0,0,0,0,0,0,0,0,0,0,0,0,0,0,0,0,0,0,0,0,0,0,0,0,0,0,0,0,0,0,0,0,0,0,0,0,0,0,0,0,0,0,502,515,535,553,564,568,570,569,568,567,569,570,570,569,568,569,569,570,570,571,570,570,568,570,571,575,573,556,540,529,528,527,527,526,525,526,527,527,528,528,529,530,531,534,536,536,536,536,539,542,545,547,548,549,553,558,561,563,565,568,572,577,583,586,590,594,605,614,621,622,621,620,620,620,619,619,619,620,619,620,620,620,621,621,621,620,619,621,621,621,618,617,618,617,617,617,617,617,617,616,615,615,617,618,619,619,619,618,618,617,617,617,618,619,620,621,622,622,623,623,624,624,625,625,626,625,625,626,628,627,626,625,626,626,627,627,627,627,627,628,628,631,628,629,628,629,628,629,629,631,632,632,634,634,637,634,635,634,639,641,644,645,0
0,879,879,876,872,874,878,883,877,876,871,875,875,877,874,871,871,875,874,871,869,873,875,874,870,870,869,868,868,866,867,867,869,871,871,873,874,874,872,871,869,868,864,868,868,871,868,866,865,865,868,868,867,865,865,867,865,864,865,868,869,869,868,868,869,869,868,865,866,866,867,864,863,864,865,864,861,862,842,818,794,788,791,808,819,827,832,825,811,811,798,790,774,768,767,770,771,766,764,762,763,762,762,763,761,759,759,760,760,759,759,760,761,760,759,758,756,756,756,756,753,751,750,749,749,749,749,747,745,743,743,742,742,739,738,738,739,738,737,736,736,736,737,735,734,733,734,733,733,731,730,728,727,726,726,725,723,721,721,721,722,720,719,717,715,713,713,715,716,715,713,707,702,699,696,692,685,680,674,667,661,655,651,647,643,641,638,637,636,635,634,632,631,629,627,625,624,624,624,623,624,624,623,623,621,622,620,619,618,617,618,620,625,626,627,626,627,628,628,627,627,627,628,628,629,631,631,631,632,631,632,630,632,634,637,639,643,646,649,650,651,652,653,653,652,649,647,646,647,650,652,655,658,662,667,669,667,665,662,661,644,604,574,562,560,569,581,591,597,607,612,619,622,626,623,608,613,615,629,649,676,0,0,0,0,0,0,0,0,0,0,0,0,0,0,0,0,0,0,0,0,0,0,0,0,0,0,0,0,0,0,0,0,0,0,0,0,0,0,0,0,0,0,0,0,0,0,0,0,0,0,0,0,0,0,0,0,0,0,0,0,0,0,0,0,0,0,0,0,0,0,0,522,541,553,560,564,565,567,569,571,569,569,567,568,567,569,569,571,570,569,566,567,569,573,575,565,548,535,531,528,527,526,526,527,528,529,529,528,529,530,533,534,535,533,534,535,538,541,543,544,544,545,549,555,558,560,561,565,567,572,580,586,590,590,597,608,619,623,622,621,620,621,620,620,620,620,620,620,620,621,620,620,620,620,619,621,621,621,619,618,618,617,617,617,617,617,616,615,614,615,616,618,619,619,619,619,619,619,619,620,620,621,621,622,622,622,624,624,624,624,625,625,625,625,626,627,628,627,626,625,626,627,628,628,629,629,629,631,632,634,631,630,631,633,634,630,630,630,635,636,640,640,642,640,640,638,639,642,644,645,0
0,879,873,871,866,869,871,874,876,876,873,875,875,878,875,874,871,876,873,870,868,872,872,869,868,869,870,867,869,867,868,865,867,868,871,873,874,871,868,868,868,870,866,869,869,872,870,866,866,867,868,867,864,865,865,866,863,863,863,866,869,871,869,870,868,868,866,866,866,866,866,865,864,865,864,863,860,861,852,823,799,784,784,796,815,831,836,824,822,806,791,777,764,763,766,771,772,767,764,762,762,761,760,762,761,759,758,758,759,758,759,760,762,761,759,756,755,755,754,755,753,753,751,751,749,750,749,744,742,741,741,741,739,738,737,738,739,736,735,734,734,736,738,736,733,731,732,732,731,729,728,726,725,723,722,720,719,717,719,720,722,719,717,715,714,713,713,714,717,716,712,705,701,700,699,697,694,690,684,675,669,663,658,653,648,644,641,641,640,638,637,636,635,634,631,628,627,627,626,623,623,624,624,623,623,625,622,620,619,621,624,628,631,634,633,633,632,632,632,631,634,635,634,631,630,632,632,633,634,633,633,632,634,637,641,644,647,650,651,652,652,652,652,650,648,645,645,645,647,651,655,662,665,667,666,666,663,661,655,650,623,588,567,562,565,576,587,597,603,610,616,622,625,629,627,620,0,621,631,652,679,653,0,0,0,0,0,0,0,0,0,0,0,0,0,0,0,0,0,0,0,0,0,0,0,0,0,0,0,0,0,0,0,0,0,0,0,0,0,0,0,0,0,0,0,0,0,0,0,0,0,0,0,0,0,0,0,0,0,0,0,0,0,0,0,0,0,0,0,0,0,0,0,0,510,530,542,551,558,564,568,569,570,569,569,567,568,568,570,570,569,566,567,568,573,575,571,554,540,533,530,529,528,529,529,529,529,529,529,530,531,536,536,537,533,534,533,537,539,543,543,543,543,544,551,555,557,558,560,563,567,575,582,587,586,588,599,613,620,621,621,620,620,620,620,619,618,618,619,620,621,620,619,619,619,619,620,621,621,619,618,617,617,616,618,618,619,618,617,616,615,617,617,618,618,619,620,621,620,620,621,623,623,624,623,623,624,625,626,624,625,625,626,625,625,626,628,628,626,624,627,627,630,629,632,633,634,633,633,635,636,635,633,635,635,635,631,632,635,637,639,643,645,647,645,642,641,640,644,645,648,0
0,870,871,870,868,866,866,872,873,876,870,872,869,872,872,874,873,878,876,873,871,872,872,868,868,870,873,870,870,868,869,864,866,866,871,872,873,867,865,864,866,868,867,869,868,870,868,867,866,867,866,864,862,865,864,864,861,863,863,864,866,869,869,869,867,867,865,865,864,865,865,864,863,862,862,862,861,864,857,826,794,776,775,784,797,814,821,823,814,800,783,770,759,762,765,770,772,768,766,762,763,760,760,760,759,759,758,758,757,757,758,760,762,761,759,757,757,758,757,753,752,752,752,750,748,748,747,743,740,738,739,739,739,737,737,737,738,735,734,733,735,736,737,733,730,729,730,728,727,725,725,723,722,719,718,718,719,717,720,719,720,718,715,713,713,712,714,715,719,716,711,704,703,702,699,697,696,694,690,684,680,673,667,660,655,650,646,645,646,646,646,644,643,641,640,638,637,635,631,623,623,622,622,622,624,630,629,629,628,627,626,627,629,632,634,633,633,633,635,636,640,640,641,639,639,639,637,637,636,636,638,637,641,643,648,649,651,651,652,652,654,653,652,648,647,645,646,646,648,652,659,666,671,669,665,660,657,651,641,629,603,580,566,566,573,582,591,600,608,614,620,625,624,622,611,603,628,618,628,648,677,660,0,0,0,0,0,0,0,0,0,0,0,0,0,0,0,0,0,0,0,0,0,0,0,0,0,0,0,0,0,0,0,0,0,0,0,0,0,0,0,0,0,0,0,0,0,0,0,0,0,0,0,0,0,0,0,0,0,0,0,0,0,0,0,0,0,0,0,0,0,0,0,0,0,0,0,512,531,543,552,559,565,567,568,566,566,567,569,569,569,567,568,569,571,572,571,561,545,536,532,531,530,530,530,529,530,530,531,532,534,536,535,535,533,533,533,536,537,540,542,543,542,542,547,551,553,554,558,562,565,571,577,583,584,585,592,605,615,620,621,621,622,622,622,620,620,618,619,619,621,619,618,618,619,619,619,620,619,618,618,618,618,617,618,618,619,618,617,616,617,617,617,618,619,621,623,624,623,623,623,625,625,625,626,626,628,628,628,626,626,628,628,626,626,627,629,628,628,627,629,629,633,632,635,634,634,632,633,635,638,638,638,637,637,637,636,637,640,642,645,647,646,648,650,649,648,644,648,648,652,0
0,864,865,870,869,866,866,868,869,867,867,869,867,870,872,877,873,873,871,872,873,871,871,868,868,872,874,871,869,868,870,866,870,867,871,870,871,867,866,866,867,870,872,874,872,871,870,869,867,868,867,866,865,869,866,864,862,866,865,864,863,867,867,865,864,862,863,863,864,864,863,864,863,863,861,862,861,861,847,808,788,778,778,778,789,794,796,794,800,793,784,769,759,762,764,769,770,768,765,762,762,760,759,759,759,759,759,758,757,757,759,760,760,760,758,756,757,759,758,754,754,754,753,750,748,748,746,742,738,737,739,739,739,736,734,733,734,733,733,733,734,733,732,730,729,727,725,724,722,722,721,722,721,720,718,718,718,717,719,719,719,717,716,715,714,713,714,715,718,713,710,704,702,699,696,695,694,694,692,689,687,682,676,670,664,658,656,653,653,653,655,657,655,653,652,651,650,643,631,622,622,621,623,622,626,631,631,631,631,629,628,627,628,630,633,635,635,634,634,636,639,642,644,644,646,646,646,645,644,644,646,647,648,648,646,646,646,648,650,651,653,652,650,649,649,648,648,648,650,654,659,665,669,666,660,651,640,628,613,600,583,575,569,575,581,589,595,604,614,619,626,626,623,606,593,590,620,614,628,652,677,667,0,0,0,0,0,0,0,0,0,0,0,0,0,0,0,0,0,0,0,0,0,0,0,0,0,0,0,0,0,0,0,0,0,0,0,0,0,0,0,0,0,0,0,0,0,0,0,0,0,0,0,0,0,0,0,0,0,0,0,0,0,0,0,0,0,0,0,0,0,0,0,0,0,0,0,0,0,0,516,535,551,560,563,565,566,568,569,569,568,568,569,569,570,569,570,564,548,537,533,532,531,531,530,530,529,530,532,534,535,536,536,537,535,535,535,537,538,539,541,542,542,543,545,548,549,551,555,560,563,568,572,578,581,584,588,599,611,617,621,621,622,621,622,620,619,618,617,618,618,618,618,618,618,619,618,619,617,618,618,619,619,619,618,618,618,619,619,619,619,619,618,619,620,622,623,624,624,625,625,627,626,626,627,628,629,629,629,628,629,631,632,630,629,630,631,630,629,630,632,634,637,639,642,640,639,639,642,644,647,647,646,642,640,637,640,639,645,647,652,649,648,649,656,660,658,652,652,654,658,0
0,878,874,869,868,868,869,868,865,866,866,868,866,869,870,874,873,868,866,867,870,866,867,867,868,868,867,867,865,866,868,866,869,868,869,868,867,867,866,868,869,868,870,870,869,868,868,870,869,870,867,864,863,866,865,864,864,868,867,866,865,865,865,863,864,862,864,864,864,863,863,863,864,864,862,861,860,860,842,803,781,773,773,781,787,783,778,777,788,798,793,774,764,766,767,770,766,766,763,761,760,760,759,758,759,759,759,759,758,759,758,759,759,760,757,755,756,757,757,753,754,752,751,746,744,743,741,740,736,735,736,737,736,732,730,729,731,731,733,733,733,729,728,726,727,726,724,722,721,722,722,722,721,720,720,721,722,721,720,720,718,717,716,716,715,714,716,716,717,713,711,706,703,698,696,694,694,693,689,688,688,685,681,677,673,669,665,662,661,660,661,660,659,656,658,658,657,644,630,621,622,620,623,623,627,630,631,632,633,632,633,630,630,631,634,636,636,635,635,637,639,640,643,644,647,647,648,648,648,648,649,648,646,641,635,634,639,646,650,649,651,650,650,650,652,653,652,651,651,654,657,660,662,657,647,631,614,598,587,579,574,573,577,584,588,595,601,610,618,623,625,618,601,590,588,592,613,610,630,656,678,673,0,0,0,0,0,0,0,0,0,0,0,0,0,0,0,0,0,0,0,0,0,0,0,0,0,0,0,0,0,0,0,0,0,0,0,0,0,0,0,0,0,0,0,0,0,0,0,0,0,0,0,0,0,0,0,0,0,0,0,0,0,0,0,0,0,0,0,0,0,0,0,0,0,0,0,0,0,0,0,0,513,534,547,555,562,566,568,568,567,567,567,567,566,566,567,566,551,539,534,533,532,532,531,530,530,531,532,533,534,534,535,536,536,536,536,537,537,538,540,541,543,544,544,546,547,549,554,558,561,564,568,573,578,581,584,590,605,615,621,621,622,622,623,622,622,621,619,618,618,618,618,618,619,620,619,619,617,619,619,621,622,622,621,620,620,621,622,622,623,622,622,622,624,625,625,625,625,626,627,627,626,625,627,629,630,630,631,631,633,634,634,633,633,635,636,637,639,642,644,646,647,650,651,651,651,652,655,656,659,657,654,649,647,644,644,646,652,655,656,653,650,652,658,665,663,660,661,662,664,0
0,886,877,867,863,869,869,866,865,866,870,869,871,873,872,872,870,865,863,862,867,862,864,868,870,866,864,865,864,864,866,865,868,868,869,866,865,866,867,870,871,868,868,869,870,870,868,869,869,870,868,864,863,865,868,866,866,866,865,865,865,865,864,863,865,863,865,865,863,861,861,863,865,864,861,860,860,860,841,800,777,762,766,775,789,787,782,782,789,792,786,773,767,767,767,767,765,765,761,760,758,758,756,757,758,758,760,761,762,762,759,759,759,760,756,753,755,756,755,751,752,750,749,745,742,742,740,741,735,735,735,736,734,730,727,727,728,729,730,731,730,726,726,726,727,726,725,724,723,725,726,725,724,723,723,723,722,721,721,721,717,714,715,715,716,715,716,716,715,713,710,707,701,696,693,693,694,693,689,689,689,689,686,682,680,676,672,669,666,663,662,661,660,659,662,661,653,633,622,618,618,618,622,625,629,629,630,631,632,634,636,634,634,633,634,637,637,636,635,636,638,640,643,645,647,647,647,646,647,646,643,640,633,626,618,620,629,644,648,648,648,651,652,654,656,656,653,651,650,651,651,650,647,637,620,601,586,576,571,568,569,575,583,591,595,603,608,617,622,626,622,606,580,587,610,586,603,611,637,664,685,681,0,0,0,0,0,0,0,0,0,0,0,0,0,0,0,0,0,0,0,0,0,0,0,0,0,0,0,0,0,0,0,0,0,0,0,0,0,0,0,0,0,0,0,0,0,0,0,0,0,0,0,0,0,0,0,0,0,0,0,0,0,0,0,0,0,0,0,0,0,0,0,0,0,0,0,0,0,0,0,0,0,0,0,519,538,551,558,563,565,566,566,566,566,565,567,565,552,540,533,533,533,533,532,530,530,530,532,533,535,536,538,538,538,537,536,537,538,538,540,541,542,542,541,543,545,547,551,555,559,563,566,570,574,579,581,584,597,610,619,622,623,622,621,620,620,621,620,619,618,618,619,620,622,622,622,621,620,622,622,623,622,624,623,622,621,624,625,626,626,625,626,626,627,627,627,626,627,628,631,631,630,628,628,629,632,632,634,635,638,639,641,643,645,646,650,653,657,658,661,664,667,667,663,662,664,667,670,669,670,666,661,658,657,656,654,656,658,657,656,655,657,657,660,664,665,666,667,669,669,0
0,885,877,872,869,871,869,866,868,869,871,869,872,873,874,873,871,868,866,864,866,859,861,863,867,865,866,865,865,864,865,864,866,867,868,869,867,866,866,868,872,868,866,867,867,866,865,868,868,867,865,862,859,861,866,867,866,865,863,864,864,864,865,865,865,863,864,864,863,861,862,863,865,861,859,858,859,859,843,801,777,763,761,774,796,795,792,786,786,776,771,769,768,768,768,769,769,766,762,760,760,759,756,757,756,757,757,760,761,761,759,759,759,760,756,754,756,757,753,748,747,747,747,745,741,740,738,739,735,735,735,736,733,729,728,728,729,730,731,731,731,728,729,728,730,730,730,729,727,728,729,728,725,724,725,726,725,724,724,723,717,712,713,713,716,716,719,717,716,714,710,705,698,695,694,695,696,694,691,689,690,688,685,683,683,680,676,673,670,667,665,663,663,662,665,661,650,626,618,616,615,617,619,623,626,629,630,630,632,633,636,636,638,637,636,637,638,638,637,637,639,641,643,647,648,648,645,643,642,638,631,624,617,611,607,612,628,645,646,645,647,652,655,656,656,653,648,645,644,644,643,638,627,609,592,579,571,566,566,568,575,582,591,595,600,606,613,619,621,624,616,591,578,638,581,572,603,621,649,673,686,682,0,0,0,0,0,0,0,0,0,0,0,0,0,0,0,0,0,0,0,0,0,0,0,0,0,0,0,0,0,0,0,0,0,0,0,0,0,0,0,0,0,0,0,0,0,0,0,0,0,0,0,0,0,0,0,0,0,0,0,0,0,0,0,0,0,0,0,0,0,0,0,0,0,0,0,0,0,0,0,0,0,0,0,0,0,0,524,544,559,565,567,566,566,566,565,562,551,540,534,534,534,534,533,531,533,532,533,533,536,537,539,539,539,538,537,537,538,538,539,540,542,540,540,542,543,544,549,553,557,559,562,566,570,574,578,580,589,603,615,622,623,624,623,622,622,622,623,621,621,620,622,623,625,625,626,627,627,628,629,628,627,627,626,626,624,626,627,628,629,628,630,629,630,631,632,631,630,633,636,636,635,634,635,636,638,639,643,645,649,653,655,658,660,664,669,672,676,676,677,678,679,678,671,670,670,674,678,680,680,675,670,669,669,670,666,665,665,665,663,666,666,666,669,670,672,673,675,673,671,0
0,872,872,872,869,867,865,866,868,867,871,869,870,870,872,874,871,868,868,871,873,866,865,864,870,869,870,866,866,865,866,865,864,865,867,870,869,866,865,866,868,868,866,870,867,868,866,868,867,865,864,863,862,865,868,868,864,864,863,863,862,864,866,865,863,861,861,863,864,863,863,861,861,858,858,858,859,858,842,801,784,768,767,780,797,797,788,781,782,770,769,767,768,767,769,770,771,765,762,760,760,759,756,758,757,757,756,758,759,760,759,759,759,760,756,754,754,756,752,747,747,748,748,744,741,740,739,739,735,735,734,733,731,730,731,731,731,731,730,731,731,731,731,732,732,733,733,732,728,728,729,730,727,727,727,726,724,724,725,724,717,712,713,714,717,717,719,717,714,710,705,701,695,694,694,696,696,695,693,692,692,689,685,682,681,679,676,674,671,669,668,666,665,665,666,659,643,623,615,615,615,618,619,625,627,628,628,628,630,633,637,638,639,637,636,637,638,639,639,638,639,640,642,645,646,645,640,636,631,624,615,607,603,602,604,614,631,644,644,644,646,652,656,655,652,645,638,634,631,630,625,615,599,582,573,568,566,564,566,573,581,588,596,602,608,613,617,620,622,628,616,615,643,595,581,566,604,616,654,679,689,684,662,0,0,0,0,0,0,0,0,0,0,0,0,0,0,0,0,0,0,0,0,0,0,0,0,0,0,0,0,0,0,0,0,0,0,0,0,0,0,0,0,0,0,0,0,0,0,0,0,0,0,0,0,0,0,0,0,0,0,0,0,0,0,0,0,0,0,0,0,0,0,0,0,0,0,0,0,0,0,0,0,0,0,0,0,0,0,0,0,542,556,563,568,568,564,556,544,535,531,533,533,533,532,533,533,533,534,534,535,537,539,539,538,537,538,538,539,538,538,540,541,539,538,539,540,543,546,552,555,557,559,563,567,570,574,576,581,594,608,620,624,625,626,626,625,625,626,626,627,629,632,635,635,635,635,637,639,639,640,640,638,637,635,635,633,635,636,638,639,640,641,640,640,641,640,639,639,643,648,649,650,651,656,656,656,657,662,664,666,670,675,677,676,678,683,684,685,683,683,683,685,687,682,679,676,678,679,682,684,682,678,677,678,680,676,674,673,676,678,680,680,679,679,678,677,676,677,675,673,0
0,867,868,868,867,865,867,865,865,865,866,866,868,870,875,876,874,871,867,871,872,873,872,866,865,861,864,863,865,864,866,869,867,866,866,868,869,865,862,861,864,865,865,867,866,866,866,868,867,863,863,862,863,864,866,866,863,863,863,865,863,865,866,867,865,861,862,862,866,865,866,862,860,857,858,858,858,858,845,804,795,777,778,776,791,790,787,784,778,769,768,767,766,765,768,770,769,762,760,760,761,761,759,760,757,757,756,757,757,757,757,756,758,758,756,753,751,752,750,747,746,746,747,743,741,740,739,737,734,733,733,733,733,734,736,737,736,735,732,731,730,731,731,733,732,733,733,732,729,729,729,730,728,728,727,727,725,727,727,725,719,715,715,716,719,719,719,716,713,708,703,698,695,695,696,696,695,694,694,693,689,684,682,680,679,677,676,674,670,669,670,668,667,666,667,656,643,622,616,615,616,619,620,626,627,627,625,625,627,632,637,639,639,638,637,636,637,638,640,640,640,639,638,639,637,635,630,624,618,610,603,598,596,599,605,619,635,642,642,641,644,650,653,648,641,634,627,619,613,606,599,589,578,569,565,565,567,570,573,580,588,594,601,606,613,615,615,615,626,636,612,600,596,583,568,592,591,614,654,679,690,685,668,0,0,0,0,0,0,0,0,0,0,0,0,0,0,0,0,0,0,0,0,0,0,0,0,0,0,0,0,0,0,0,0,0,0,0,0,0,0,0,0,0,0,0,0,0,0,0,0,0,0,0,0,0,0,0,0,0,0,0,0,0,0,0,0,0,0,0,0,0,0,0,0,0,0,0,0,0,0,0,0,0,0,0,0,0,0,0,0,0,0,0,545,553,552,544,532,526,528,532,532,532,532,532,532,532,535,535,536,537,540,539,539,538,539,539,540,538,539,539,540,539,538,539,540,544,547,551,553,553,556,560,565,568,570,572,576,586,603,620,631,635,638,641,642,641,643,643,647,650,654,658,659,659,661,663,665,665,666,666,665,663,660,658,656,657,656,659,661,663,663,663,664,666,666,664,664,668,670,668,669,674,680,681,680,680,682,684,685,689,690,689,687,687,691,693,693,690,688,687,689,692,692,688,685,685,684,686,685,686,681,682,682,681,675,678,684,689,687,688,687,685,683,680,679,676,676,675,674,0
0,868,868,864,864,866,868,865,864,862,862,864,868,871,872,874,875,869,867,870,872,874,872,870,866,859,858,861,864,862,863,866,865,866,868,868,869,866,867,862,861,861,864,866,868,867,866,866,864,863,863,865,866,865,862,862,862,864,865,867,865,864,864,865,865,864,863,862,864,864,863,859,858,858,860,860,859,856,840,801,787,777,775,777,788,790,787,776,772,771,770,769,767,765,766,767,766,761,761,761,761,761,760,760,758,758,758,758,760,758,758,755,758,758,757,752,749,749,748,748,746,747,743,741,739,738,737,737,736,737,736,737,737,740,740,740,736,735,730,730,728,730,730,732,730,731,731,733,731,730,730,730,728,729,728,729,727,727,726,725,722,718,717,717,719,717,716,715,711,705,701,697,695,695,696,696,694,693,693,692,688,684,682,678,677,675,673,671,668,667,667,664,661,662,661,650,634,621,617,0,616,618,621,628,628,627,623,623,626,633,637,637,635,635,637,636,635,635,636,635,633,631,629,627,623,621,616,611,606,601,596,592,593,598,608,623,635,638,639,638,642,645,642,633,624,619,612,601,591,583,578,572,567,564,563,567,571,576,581,587,592,599,604,612,619,625,622,627,641,618,592,586,586,577,0,0,576,602,650,677,694,687,672,0,0,0,0,0,0,0,0,0,0,0,0,0,0,0,0,0,0,0,0,0,0,0,0,0,0,0,0,0,0,0,0,0,0,0,0,0,0,0,0,0,0,0,0,0,0,0,0,0,0,0,0,0,0,0,0,0,0,0,0,0,0,0,0,0,0,0,0,0,0,0,0,0,0,0,0,0,0,0,0,0,0,0,0,0,0,0,0,0,0,0,0,0,0,0,0,508,523,530,530,531,532,532,532,531,534,534,535,537,539,538,538,537,538,538,539,538,538,537,538,538,537,538,540,544,545,548,550,551,553,556,562,565,567,568,571,577,594,621,644,657,664,669,671,672,674,677,680,686,688,690,688,688,686,687,687,687,689,691,691,692,690,688,686,688,689,690,691,690,689,689,690,692,692,691,690,692,692,693,693,696,698,698,698,697,698,697,697,698,698,696,694,692,696,699,700,697,693,693,695,699,698,695,692,689,684,685,686,689,685,684,684,683,683,688,693,695,691,691,687,684,680,678,678,677,676,676,675,0
0,868,865,858,863,871,877,870,866,858,857,861,871,876,875,873,872,868,867,869,869,869,868,866,864,859,860,863,865,865,865,866,865,866,868,867,866,866,867,861,860,859,864,863,867,864,864,861,862,861,863,864,864,859,858,859,862,864,864,865,864,863,862,863,864,863,863,862,863,861,861,858,860,860,861,859,858,857,837,797,792,785,784,772,782,790,789,771,767,770,771,772,770,768,767,765,763,761,762,762,763,763,761,760,758,757,757,757,760,757,758,757,760,758,756,752,751,750,748,746,743,743,739,738,737,739,739,739,740,742,744,747,748,750,746,744,737,735,730,730,728,730,730,731,730,730,730,731,731,730,730,730,729,729,729,730,729,727,725,724,722,718,718,718,720,717,716,712,708,703,701,698,697,698,697,695,692,692,691,690,686,682,680,676,676,673,674,672,669,666,665,662,661,660,657,644,632,622,0,0,0,616,621,627,627,626,622,621,624,629,631,631,629,629,630,630,627,626,626,625,622,619,618,615,612,609,605,601,598,596,593,591,593,600,611,624,631,633,634,634,635,632,623,612,604,600,594,585,578,571,568,566,565,565,566,569,573,580,585,591,596,604,610,618,626,628,626,645,647,622,600,590,613,586,580,0,0,600,649,678,696,689,672,0,0,0,0,0,0,0,0,0,0,0,0,0,0,0,0,0,0,0,0,0,0,0,0,0,0,0,0,0,0,0,0,0,0,0,0,0,0,0,0,0,0,0,0,0,0,0,0,0,0,0,0,0,0,0,0,0,0,0,0,0,0,0,0,0,0,0,0,0,0,0,0,0,0,0,0,0,0,0,0,0,0,0,0,0,0,0,0,0,0,0,0,0,0,0,0,0,503,521,527,530,532,531,532,531,534,533,535,537,540,541,541,539,539,538,539,539,538,538,538,537,537,537,540,543,544,544,546,549,551,554,558,562,565,568,572,575,587,614,654,679,692,696,697,698,700,702,704,707,707,706,705,705,705,705,706,706,705,704,704,706,707,706,704,706,707,707,705,705,704,704,704,705,705,706,706,709,709,710,708,708,707,705,704,704,704,704,705,705,702,702,702,701,703,704,705,701,698,698,698,700,700,698,695,690,687,689,691,693,690,688,685,685,689,693,695,694,690,689,686,684,681,678,680,679,676,670,667,0
0,867,866,862,866,869,877,871,868,858,859,863,869,871,869,867,865,864,866,866,868,865,867,866,866,865,865,867,869,868,867,862,862,864,868,869,868,867,868,865,865,865,867,864,864,862,861,858,858,860,861,863,861,858,857,858,862,862,863,862,861,860,859,860,861,860,860,860,860,859,857,857,859,862,862,860,859,858,840,796,786,790,783,771,781,794,786,770,768,772,773,773,770,769,766,764,761,761,764,764,764,763,762,760,758,756,755,756,760,760,759,759,759,757,753,750,750,747,746,744,743,743,739,740,739,742,742,746,750,754,755,754,752,751,749,745,739,734,730,730,730,731,730,731,730,731,730,731,730,730,730,729,729,728,729,731,727,724,723,723,723,719,719,718,719,715,712,707,703,701,701,699,698,697,695,691,690,690,689,688,685,683,681,677,677,674,673,671,668,666,662,661,660,659,651,637,624,622,0,0,616,619,622,627,626,624,620,619,619,620,621,622,621,619,618,619,617,617,616,613,610,608,608,607,606,603,599,595,593,593,592,590,593,601,612,622,627,628,627,624,618,610,599,591,585,582,578,574,570,567,565,565,566,568,571,575,579,584,589,595,602,615,627,644,648,643,630,605,643,0,628,630,596,591,587,575,0,603,652,681,697,686,671,0,0,0,0,0,0,0,0,0,0,0,0,0,0,0,0,0,0,0,0,0,0,0,0,0,0,0,0,0,0,0,0,0,0,0,0,0,0,0,0,0,0,0,0,0,0,0,0,0,0,0,0,0,0,0,0,0,0,0,0,0,0,0,0,0,0,0,0,0,0,0,0,0,0,0,0,0,0,0,0,0,0,0,0,0,0,0,0,0,0,0,0,0,0,0,0,0,0,0,506,520,528,531,532,532,532,533,535,538,540,542,540,539,538,538,539,539,538,539,539,538,537,537,540,541,542,543,544,548,549,551,553,559,564,567,571,573,578,598,642,683,702,706,709,710,711,711,712,713,712,710,711,713,713,712,713,713,712,711,712,714,715,714,712,715,715,714,711,710,711,712,713,713,713,712,711,714,715,718,717,716,713,711,710,711,712,711,710,708,707,708,707,705,703,704,708,706,703,703,700,702,699,701,698,693,690,692,696,698,697,695,692,693,695,697,694,692,688,689,687,687,684,684,685,685,678,664,653,0
0,867,866,861,863,862,873,871,873,865,864,862,865,868,869,866,862,863,866,865,866,867,867,867,866,870,866,868,866,865,865,861,860,861,865,867,866,865,865,866,869,870,869,863,861,859,863,861,862,862,862,860,860,859,860,860,862,860,859,858,860,861,862,862,861,860,860,860,860,860,858,857,859,862,861,860,858,861,850,812,790,784,783,772,777,784,779,773,772,773,772,769,767,766,764,762,758,759,762,763,763,760,761,760,757,754,754,756,759,759,759,759,758,756,753,750,750,745,743,741,743,744,743,744,746,750,753,754,753,753,757,758,759,756,756,749,743,737,733,730,729,730,730,730,730,731,729,729,729,730,731,731,730,729,728,727,724,722,721,720,720,718,720,720,721,716,710,703,699,698,700,699,701,698,697,691,688,687,686,685,683,682,680,676,675,672,673,670,668,666,664,663,662,657,646,634,625,622,0,0,619,621,623,626,625,622,618,615,613,613,613,612,612,611,610,609,607,608,608,605,604,602,601,600,600,600,597,594,593,592,592,591,595,603,614,619,620,620,616,606,594,586,581,577,573,571,570,569,568,566,565,565,567,571,575,580,584,588,595,600,614,634,664,686,689,662,639,599,0,635,656,0,0,551,587,570,515,582,656,686,697,685,678,656,0,0,0,0,0,0,0,0,0,0,0,0,0,0,0,0,0,0,0,0,0,0,0,0,0,0,0,0,0,0,0,0,0,0,0,0,0,0,0,0,0,0,0,0,0,0,0,0,0,0,0,0,0,0,0,0,0,0,0,0,0,0,0,0,0,0,0,0,0,0,0,0,0,0,0,0,0,0,0,0,0,0,0,0,0,0,0,0,0,0,0,0,0,0,0,0,0,0,0,0,502,516,526,530,532,534,536,539,541,542,540,539,539,540,541,541,541,541,539,537,536,536,538,540,541,543,545,549,550,550,551,557,561,565,570,573,574,586,621,675,704,711,716,717,717,716,716,716,716,716,719,721,721,720,719,719,718,718,718,720,722,721,719,718,719,721,721,721,721,722,722,723,723,721,719,718,720,719,719,716,716,714,713,713,711,711,709,710,710,711,712,711,710,708,709,707,707,708,705,705,701,704,701,700,697,696,697,700,701,702,696,696,694,696,693,690,687,689,689,690,689,694,699,689,674,657,642,0
0,869,871,866,864,858,865,867,872,868,867,865,862,866,866,868,860,863,867,867,865,864,866,870,867,869,863,864,861,860,863,857,856,857,863,868,869,868,868,867,870,869,869,863,860,860,863,862,862,861,860,858,857,859,860,859,860,858,860,860,861,861,861,861,860,859,858,858,857,859,858,857,857,858,858,859,859,861,850,811,790,786,789,790,787,780,776,774,775,771,768,765,765,764,761,760,758,759,761,761,758,755,756,756,753,753,753,758,760,762,761,754,752,751,752,748,748,744,744,743,747,750,752,754,756,759,759,758,754,754,758,760,760,757,757,752,746,740,735,731,729,729,728,729,730,731,729,730,730,730,730,730,731,731,730,727,723,721,721,720,719,718,721,721,719,713,706,700,696,696,699,698,699,695,693,687,685,684,683,683,683,682,679,676,673,672,671,667,665,663,661,662,657,652,641,633,622,617,0,618,620,623,622,627,626,621,614,611,608,607,606,605,605,605,605,603,602,602,603,601,599,597,597,595,596,596,594,592,591,591,590,590,596,606,613,611,608,605,597,588,578,575,571,570,568,567,567,567,567,565,565,566,570,575,579,584,588,594,600,609,632,674,714,718,698,674,668,0,0,656,629,664,0,633,0,584,539,0,0,689,697,686,683,672,0,0,0,0,0,0,0,0,0,0,0,0,0,0,0,0,0,0,0,0,0,0,0,0,0,0,0,0,0,0,0,0,0,0,0,0,0,0,0,0,0,0,0,0,0,0,0,0,0,0,0,0,0,0,0,0,0,0,0,0,0,0,0,0,0,0,0,0,0,0,0,0,0,0,0,0,0,0,0,0,0,0,0,0,0,0,0,0,0,0,0,0,0,0,0,0,0,0,0,0,0,0,0,515,526,533,536,539,538,539,538,539,538,540,540,542,542,542,540,538,537,537,538,539,539,542,544,547,548,548,550,556,561,564,566,569,569,578,602,658,697,713,718,720,719,718,718,718,720,722,725,727,725,724,724,724,723,724,724,725,723,722,719,719,720,723,726,728,728,728,726,726,726,725,723,723,722,719,716,715,716,717,716,714,712,713,711,712,713,714,714,713,713,712,710,709,711,714,712,711,707,709,707,707,705,702,701,702,703,703,698,697,695,695,691,690,689,693,692,691,690,704,710,691,670,669,667,0
0,876,873,863,863,860,864,866,871,871,868,869,867,867,867,868,861,863,867,869,866,860,860,865,862,865,862,863,860,862,863,860,855,857,863,865,866,866,867,866,865,863,863,861,860,861,866,866,866,863,861,859,858,860,860,860,860,859,861,861,863,863,863,862,861,862,858,859,859,858,857,855,855,854,854,856,858,861,846,813,795,793,796,796,790,776,776,775,775,771,766,764,763,763,759,759,759,760,762,761,757,752,754,754,753,752,755,756,758,757,758,751,751,750,752,752,753,752,751,750,753,757,761,761,760,759,759,759,756,754,754,757,761,760,759,755,749,745,738,733,730,728,727,728,729,730,729,730,731,731,730,731,731,732,730,726,723,721,720,718,718,717,720,719,717,711,706,699,696,696,697,697,696,695,692,687,684,682,681,682,682,682,677,674,673,671,670,665,663,659,659,658,651,644,636,630,622,616,616,615,620,620,623,626,624,618,613,610,608,606,604,603,604,603,604,600,600,598,599,597,597,595,595,592,594,593,592,591,592,591,589,591,599,609,610,602,595,588,582,578,573,571,569,568,566,566,567,568,568,567,567,569,574,579,582,585,590,597,604,620,660,725,741,730,682,657,667,0,0,635,614,607,0,559,561,567,525,536,672,692,698,691,690,686,0,0,0,0,0,0,0,0,0,0,0,0,0,0,0,0,0,0,0,0,0,0,0,0,0,0,0,0,0,0,0,0,0,0,0,0,0,0,0,0,0,0,0,0,0,0,0,0,0,0,0,0,0,0,0,0,0,0,0,0,0,0,0,0,0,0,0,0,0,0,0,0,0,0,0,0,0,0,0,0,0,0,0,0,0,0,0,0,0,0,0,0,0,0,0,0,0,0,0,0,0,0,0,0,0,518,529,535,535,537,537,538,539,539,540,541,541,540,539,539,537,537,536,537,538,540,542,545,547,548,551,555,558,561,562,565,567,572,590,631,687,712,719,722,722,723,723,723,724,725,727,727,727,726,726,725,725,725,726,727,726,724,722,720,722,725,731,734,734,731,729,728,727,724,724,725,727,722,717,715,716,717,715,716,713,717,713,713,713,715,717,719,721,718,714,711,716,718,718,715,713,713,712,711,710,708,705,703,703,702,698,695,694,694,692,691,691,694,692,692,688,706,0,657,0,0,0,0
0,879,874,863,862,861,862,867,869,870,869,873,875,874,867,865,857,862,865,869,865,857,859,861,864,862,860,864,862,867,865,863,858,859,862,862,863,864,865,864,863,858,858,857,860,862,865,864,864,862,862,861,859,859,858,859,856,856,857,859,860,861,861,861,860,860,856,858,856,855,854,853,854,852,852,854,855,860,851,810,795,792,786,788,784,775,774,771,771,767,764,765,764,763,759,759,760,760,762,759,755,751,752,752,751,752,755,756,758,756,756,749,750,750,755,756,759,760,759,757,757,762,764,762,760,760,760,760,759,758,757,759,761,760,759,759,753,749,741,737,732,728,727,728,730,731,731,732,733,732,731,732,732,733,729,725,721,719,718,718,718,718,719,716,712,707,701,697,695,698,696,696,693,691,686,682,681,681,680,681,681,681,676,674,673,671,668,664,660,656,655,651,643,638,634,628,617,612,613,614,621,621,624,625,622,614,610,609,607,604,603,602,604,602,602,599,598,596,596,595,596,595,594,593,595,594,590,589,590,590,588,593,601,610,603,593,584,577,574,573,571,569,568,567,567,566,567,570,570,571,571,574,579,585,587,590,595,604,613,632,677,732,745,723,678,647,0,639,0,0,604,603,0,0,578,0,0,0,682,699,701,696,689,683,0,0,0,0,0,0,0,0,0,0,0,0,0,0,0,0,0,0,0,0,0,0,0,0,0,0,0,0,0,0,0,0,0,0,0,0,0,0,0,0,0,0,0,0,0,0,0,0,0,0,0,0,0,0,0,0,0,0,0,0,0,0,0,0,0,0,0,0,0,0,0,0,0,0,0,0,0,0,0,0,0,0,0,0,0,0,0,0,0,0,0,0,0,0,0,0,0,0,0,0,0,0,0,0,0,0,505,520,527,533,535,537,537,538,539,538,538,540,539,539,536,536,536,537,537,539,540,542,544,547,550,554,557,559,560,563,565,569,580,612,672,707,719,723,724,725,725,727,728,727,727,726,726,726,727,727,725,726,727,729,728,726,725,725,726,729,732,733,735,732,732,729,728,725,725,726,727,725,721,720,720,721,719,720,723,725,723,723,721,722,722,723,724,723,720,718,719,721,720,718,717,717,715,713,713,711,710,704,703,699,698,694,696,695,693,691,688,692,692,694,689,0,0,0,0,0,0,0
0,879,872,863,859,863,865,868,869,871,871,872,874,873,866,864,858,862,861,863,862,857,859,858,859,857,857,861,861,865,863,864,863,864,862,861,861,863,865,866,864,859,857,857,859,862,864,864,862,861,862,865,862,860,857,858,857,857,857,857,859,860,862,862,862,861,859,858,857,853,854,854,854,853,853,855,854,858,860,813,785,774,776,774,774,771,771,769,770,768,764,763,762,763,761,759,760,759,761,758,757,753,753,751,751,751,756,755,757,754,756,753,756,759,764,767,768,767,761,757,756,760,764,762,760,758,759,760,762,762,761,762,765,765,762,762,758,752,745,739,734,728,727,727,729,730,731,732,733,731,731,733,732,732,727,722,718,717,716,715,716,718,719,713,707,702,698,696,697,700,698,696,691,691,685,682,681,681,680,679,680,679,677,675,675,671,667,662,658,654,653,646,639,635,632,626,614,610,611,614,622,623,625,624,619,612,608,608,608,605,604,603,604,602,601,598,596,594,594,594,596,595,594,593,594,594,591,590,590,589,589,594,602,605,595,585,578,574,573,572,571,569,568,567,567,568,569,572,573,575,575,579,585,590,592,594,601,613,628,645,662,698,723,724,659,662,0,0,525,0,548,567,585,0,0,0,0,0,687,702,702,697,690,684,0,0,0,0,0,0,0,0,0,0,0,0,0,0,0,0,0,0,0,0,0,0,0,0,0,0,0,0,0,0,0,0,0,0,0,0,0,0,0,0,0,0,0,0,0,0,0,0,0,0,0,0,0,0,0,0,0,0,0,0,0,0,0,0,0,0,0,0,0,0,0,0,0,0,0,0,0,0,0,0,0,0,0,0,0,0,0,0,0,0,0,0,0,0,0,0,0,0,0,0,0,0,0,0,0,0,0,0,0,512,523,530,533,536,537,537,538,539,539,538,536,535,534,535,537,538,538,540,542,546,549,552,555,558,561,563,564,566,574,597,652,698,717,724,727,728,728,730,730,729,730,728,728,727,729,730,728,726,726,729,729,729,728,730,731,734,734,736,736,735,734,733,733,730,729,729,731,732,730,730,727,728,727,730,731,732,729,731,729,730,727,728,728,726,724,725,726,725,720,720,719,720,717,715,714,713,711,706,705,702,700,697,699,698,695,691,689,690,689,694,692,0,0,0,0,0,7681,0
0,869,867,860,859,865,868,870,869,873,871,867,866,869,870,868,862,864,861,861,858,858,860,860,861,861,859,858,857,860,860,863,863,865,862,861,861,863,865,864,863,861,861,859,859,860,861,860,859,859,861,864,861,859,855,857,855,855,856,857,857,856,857,858,859,859,860,858,856,852,855,855,857,857,856,854,850,854,840,808,790,776,775,766,766,766,767,767,768,766,763,763,765,765,762,759,760,759,759,757,756,755,753,750,749,750,754,754,755,752,753,753,757,762,767,766,763,759,758,754,755,756,760,758,759,758,760,761,764,765,765,766,766,767,765,766,765,758,750,742,736,729,727,727,729,730,731,732,733,731,732,734,734,731,724,720,716,716,714,714,715,719,717,712,705,700,694,695,697,699,695,692,690,688,682,679,680,680,680,677,678,677,675,674,674,671,665,660,653,651,650,642,635,633,630,623,612,610,612,618,626,625,625,624,619,611,606,605,605,604,603,601,600,599,599,597,595,593,594,592,594,592,591,590,591,592,590,589,588,588,588,593,600,600,588,580,574,573,572,571,570,569,568,567,568,569,570,572,574,577,579,583,586,592,596,603,612,630,655,659,635,644,0,0,636,622,0,541,552,0,0,582,0,524,0,0,0,0,692,706,704,697,691,682,653,0,0,0,0,0,0,0,0,0,0,0,0,0,0,0,0,0,0,0,0,0,0,0,0,0,0,0,0,0,0,0,0,0,0,0,0,0,0,0,0,0,0,0,0,0,0,0,0,0,0,0,0,0,0,0,0,0,0,0,0,0,0,0,0,0,0,0,0,0,0,0,0,0,0,0,0,0,0,0,0,0,0,0,0,0,0,0,0,0,0,0,0,0,0,0,0,0,0,0,0,0,0,0,0,0,0,0,0,0,0,507,519,528,533,534,536,538,537,536,534,534,533,533,534,536,535,538,541,545,547,550,553,556,561,563,564,565,569,585,623,684,714,725,728,727,729,732,732,732,732,732,730,731,733,734,730,727,726,729,728,729,730,734,736,738,738,739,737,736,737,738,737,735,734,734,732,732,731,734,735,736,735,734,735,734,734,737,736,736,732,731,729,728,727,730,728,726,722,721,720,719,717,716,715,713,711,708,706,703,698,696,696,697,695,691,687,688,685,689,697,697,0,0,0,0,7684,0
0,862,862,861,863,868,868,866,866,868,870,864,860,860,865,868,863,864,860,862,862,863,863,860,861,864,863,861,857,857,858,862,862,863,856,860,861,864,863,863,861,863,861,859,856,856,857,858,857,858,857,861,859,858,857,857,856,855,859,860,858,855,856,857,858,858,860,858,856,853,855,855,857,858,857,855,854,856,853,811,787,780,775,765,764,763,762,762,763,763,763,761,762,763,764,763,763,762,760,758,757,756,753,751,750,752,755,754,754,751,753,754,757,760,763,762,759,758,760,757,757,756,761,759,760,758,761,762,764,764,766,768,768,768,766,767,770,765,760,747,739,731,728,728,729,730,730,733,733,732,732,735,734,730,722,720,718,718,716,714,716,716,715,708,701,697,694,695,699,698,692,688,687,686,682,680,681,681,679,676,677,676,675,674,673,670,664,659,653,652,647,639,633,634,630,621,613,612,613,618,625,625,626,622,617,608,604,604,605,605,603,602,599,598,599,597,597,592,593,591,593,591,590,589,590,590,589,587,587,586,588,592,597,591,581,576,573,573,572,572,571,570,570,570,571,571,572,573,576,580,583,586,588,594,602,615,629,646,652,661,651,584,618,0,577,592,621,618,607,0,0,0,0,0,0,0,0,0,693,708,707,700,695,687,657,0,0,0,0,0,0,0,0,0,0,0,0,0,0,0,0,0,0,0,0,0,0,0,0,0,0,0,0,0,0,0,0,0,0,0,0,0,0,0,0,0,0,0,0,0,0,0,0,0,0,0,0,0,0,0,0,0,0,0,0,0,0,0,0,0,0,0,0,0,0,0,0,0,0,0,0,0,0,0,0,0,0,0,0,0,0,0,0,0,0,0,0,0,0,0,0,0,0,0,0,0,0,0,0,0,0,0,0,0,0,0,0,503,516,524,530,533,535,535,534,533,530,530,532,534,536,538,540,543,545,548,551,555,560,562,565,565,568,576,603,662,706,723,729,730,731,732,732,731,733,734,733,736,737,738,733,729,728,730,729,731,733,738,740,741,741,742,741,741,742,744,742,739,739,740,738,737,735,738,738,741,741,740,738,735,736,738,736,735,732,732,730,727,726,728,727,725,723,722,720,717,715,714,715,714,709,706,705,704,700,698,695,696,693,692,687,689,687,690,689,694,0,0,0,7705,7697,0
0,868,868,865,869,870,867,867,867,867,865,858,855,856,861,860,859,860,863,865,863,865,863,865,866,867,866,865,863,862,861,865,861,858,854,856,859,863,862,860,857,861,858,859,856,857,858,856,857,858,858,859,857,858,858,857,857,854,856,859,858,855,853,856,856,857,858,857,854,852,854,855,857,857,855,853,854,859,863,822,790,776,766,763,765,764,762,760,761,761,759,759,761,763,766,766,766,762,761,759,758,755,752,751,753,756,758,757,754,751,750,751,753,757,761,760,758,757,759,758,760,760,763,761,763,763,765,765,765,765,766,770,768,769,769,769,770,766,761,750,740,732,729,729,730,730,731,732,732,732,733,735,735,729,720,717,716,716,717,716,717,715,712,705,699,695,694,695,698,693,688,684,682,680,679,682,683,682,679,677,676,675,674,672,668,665,660,656,651,652,644,636,632,635,629,618,615,615,617,620,625,626,624,620,613,606,602,602,604,603,601,599,597,596,598,597,596,592,591,589,589,588,587,587,589,589,587,586,586,586,589,592,594,585,577,575,573,574,573,572,571,571,572,572,573,573,574,576,578,583,587,592,593,601,619,651,663,660,655,650,602,629,595,596,604,545,0,0,614,627,0,0,0,0,0,0,512,0,0,708,707,700,695,687,667,0,0,0,0,0,0,0,0,0,0,0,0,0,0,0,0,0,0,0,0,0,0,0,0,0,0,0,0,0,0,0,0,0,0,0,0,0,0,0,0,0,0,0,0,0,0,0,0,0,0,0,0,0,0,0,0,0,0,0,0,0,0,0,0,0,0,0,0,0,0,0,0,0,0,0,0,0,0,0,0,0,0,0,0,0,0,0,0,0,0,0,0,0,0,0,0,0,0,0,0,0,0,0,0,0,0,0,0,0,0,0,0,0,0,0,507,518,525,530,530,529,527,527,529,531,534,535,538,541,546,548,549,551,555,558,560,562,564,568,587,633,695,722,729,730,732,732,734,732,733,733,735,737,739,738,735,731,730,731,733,736,738,743,744,744,745,745,746,745,747,747,744,741,742,741,739,739,739,740,740,742,743,740,738,736,738,738,737,735,733,732,731,728,727,727,724,722,722,723,720,717,714,714,714,715,710,707,705,705,702,699,694,695,692,694,687,688,688,690,689,690,0,0,0,0,7699,0
0,873,872,871,868,862,863,860,859,857,857,855,855,857,858,858,860,863,863,863,862,865,867,866,865,866,866,869,864,865,862,865,859,857,853,854,857,863,862,858,855,859,857,858,855,855,856,856,858,859,858,859,858,858,859,860,859,855,856,859,860,857,855,855,856,857,856,856,853,851,851,852,853,852,852,852,855,860,861,821,781,766,761,763,766,766,762,760,760,761,759,758,761,763,767,766,769,766,766,761,759,757,755,754,754,758,759,760,758,758,757,757,756,760,763,762,761,759,761,760,764,764,765,763,765,766,768,766,765,766,768,773,772,773,771,770,768,767,762,756,746,734,730,730,730,730,730,731,732,731,731,734,735,729,720,715,713,716,718,719,718,713,709,702,697,693,695,697,698,692,688,685,681,678,678,685,686,685,679,677,676,675,674,668,665,661,659,655,652,653,642,634,630,634,628,618,615,615,618,620,627,627,623,616,609,603,601,602,604,603,599,596,595,594,596,596,595,591,589,588,588,586,587,587,588,587,587,585,585,584,588,591,589,580,574,573,574,575,573,572,571,572,573,573,575,576,579,580,583,586,591,599,606,620,645,669,675,655,667,629,624,0,0,598,588,555,0,589,587,588,0,0,0,0,0,0,0,0,0,697,703,700,695,688,673,0,0,0,0,0,0,0,0,0,0,0,0,0,0,0,0,0,0,0,0,0,0,0,0,0,0,0,0,0,0,0,0,0,0,0,0,0,0,0,0,0,0,0,0,0,0,0,0,0,0,0,0,0,0,0,0,0,0,0,0,0,0,0,0,0,0,0,0,0,0,0,0,0,0,0,0,0,0,0,0,0,0,0,0,0,0,0,0,0,0,0,0,0,0,0,0,0,0,0,0,0,0,0,0,0,0,0,0,0,0,0,0,0,0,0,0,0,0,507,514,517,519,523,526,529,533,533,535,537,543,545,548,549,552,552,557,559,561,562,575,607,678,714,727,731,734,734,735,733,734,734,736,738,740,738,736,735,734,735,738,742,744,748,748,747,746,746,749,748,750,748,746,744,743,742,743,745,745,744,742,744,744,743,741,739,739,738,737,735,733,730,730,728,726,723,721,721,722,724,721,719,715,714,713,714,711,708,706,705,702,697,693,692,690,693,690,692,691,691,688,688,697,0,0,0,0,0
0,866,869,871,866,868,862,862,852,852,852,855,857,861,860,860,864,869,866,862,859,863,862,863,862,864,862,862,859,865,861,860,856,857,857,856,861,863,861,854,853,858,858,859,857,857,856,855,857,859,859,859,857,857,858,860,859,856,857,858,860,857,855,855,857,857,857,855,852,850,850,852,852,851,851,851,853,853,852,831,779,767,764,765,768,770,766,763,761,761,760,761,763,766,768,767,769,768,768,765,765,764,761,758,755,757,756,758,758,763,762,763,763,764,765,766,766,762,760,761,764,766,765,764,765,767,767,766,766,769,770,775,772,775,774,774,768,766,760,757,749,738,729,728,728,729,728,729,731,731,732,734,736,729,719,711,710,715,718,719,715,709,705,699,697,695,698,698,695,690,687,685,681,679,681,686,685,684,679,677,673,671,670,668,664,660,655,651,650,649,637,631,629,634,624,617,614,616,620,625,628,628,619,612,606,603,601,602,603,602,598,596,595,595,596,595,593,590,589,588,586,585,585,585,585,585,584,584,583,584,586,585,582,576,573,573,574,575,573,573,573,574,575,577,578,580,582,584,587,590,596,613,637,655,659,672,667,677,644,656,0,584,546,596,569,0,0,0,532,0,0,0,0,0,0,0,0,0,0,692,702,702,698,692,680,0,0,0,0,0,0,0,0,0,0,0,0,0,0,0,0,0,0,0,0,0,0,0,0,0,0,0,0,0,0,0,0,0,0,0,0,0,0,0,0,0,0,0,0,0,0,0,0,0,0,0,0,0,0,0,0,0,0,0,0,0,0,0,0,0,0,0,0,0,0,0,0,0,0,0,0,0,0,0,0,0,0,0,0,0,0,0,0,0,0,0,0,0,0,0,0,0,0,0,0,0,0,0,0,0,0,0,0,0,0,0,0,0,0,0,0,0,0,0,0,0,500,511,518,524,527,529,532,535,540,542,544,546,548,549,551,554,556,559,566,590,648,708,727,731,732,733,735,736,735,735,737,738,738,736,736,737,737,738,742,748,750,752,751,750,750,750,752,750,749,747,746,746,745,744,744,746,746,745,744,745,743,742,741,741,739,738,737,735,733,731,730,728,728,724,722,722,723,725,724,722,718,717,716,715,713,713,711,707,702,697,694,691,689,690,691,689,689,689,692,693,695,695,0,7656,7596,0
0,857,858,862,864,868,859,855,850,852,851,853,857,861,861,862,869,871,867,862,862,863,861,859,864,865,862,858,854,862,856,856,855,858,857,855,859,858,854,853,856,861,859,859,858,856,854,856,858,859,857,856,854,855,857,857,857,855,858,858,859,855,854,855,856,855,855,854,852,850,850,851,851,850,851,851,850,849,847,831,779,768,764,764,767,769,767,763,762,762,763,765,766,765,765,766,767,766,765,768,771,772,770,764,757,757,757,760,762,765,766,767,767,766,766,768,770,767,767,767,767,766,765,766,766,769,768,767,767,769,771,772,770,772,773,777,772,769,763,762,758,745,732,729,728,728,727,729,732,732,731,731,733,726,717,712,712,718,720,720,715,708,702,696,695,697,701,698,693,690,688,686,684,684,686,686,683,679,677,675,672,668,667,666,664,659,652,649,649,644,633,628,628,634,624,618,616,618,622,626,626,623,615,609,605,603,602,604,605,604,600,598,597,595,596,594,593,590,589,589,588,586,586,585,585,584,582,582,581,583,583,581,578,0,574,574,574,574,574,573,574,576,578,584,593,596,593,590,594,599,615,644,674,684,678,676,688,672,647,656,634,574,562,0,554,560,0,0,0,0,0,0,0,0,0,0,0,0,0,698,707,708,702,692,680,0,0,0,0,0,0,0,0,0,0,0,0,0,0,0,0,0,0,0,0,0,0,0,0,0,0,0,0,0,0,0,0,0,0,0,0,0,0,0,0,0,0,0,0,0,0,0,0,0,0,0,0,0,0,0,0,0,0,0,0,0,0,0,0,0,0,0,0,0,0,0,0,0,0,0,0,0,0,0,0,0,0,0,0,0,0,0,0,0,0,0,0,0,0,0,0,0,0,0,0,0,0,0,0,0,0,0,0,0,0,0,0,0,0,0,0,0,0,0,0,0,0,0,0,512,519,524,528,531,536,537,541,543,546,547,551,552,554,557,562,580,622,696,724,731,732,733,734,736,736,737,736,738,738,738,739,741,742,744,747,752,753,754,753,752,752,751,752,749,749,747,748,749,749,748,748,748,747,746,744,745,742,743,742,741,740,739,739,736,734,732,729,727,725,724,723,723,722,722,723,721,718,715,715,714,712,712,710,704,698,696,694,691,687,687,689,689,691,691,691,688,688,697,0,7659,7607,0
0,852,849,856,864,869,858,855,854,858,855,855,860,860,860,860,867,867,862,859,860,857,857,857,866,865,860,854,854,861,858,856,854,856,858,857,857,856,853,854,856,859,857,859,859,858,855,854,856,857,855,855,852,854,853,852,853,854,858,858,859,856,855,856,855,854,854,855,853,850,851,853,853,853,852,852,849,847,842,831,784,770,767,766,766,767,765,764,762,763,765,768,767,765,765,768,765,764,763,768,771,775,778,771,765,762,762,762,763,763,764,767,770,770,769,771,772,771,771,771,769,769,766,767,766,769,769,769,772,773,775,774,771,771,773,776,774,770,767,763,762,752,735,730,727,728,727,730,733,735,734,733,730,722,716,714,714,719,719,717,712,707,701,695,695,697,701,697,691,687,684,684,684,687,689,686,680,675,674,674,668,665,664,665,663,657,650,646,646,637,628,625,629,634,623,618,617,621,626,626,622,617,611,608,604,603,602,604,605,605,602,601,600,598,598,595,593,591,590,589,587,588,586,586,584,584,582,581,580,583,582,580,576,575,576,575,575,576,576,577,580,583,587,602,632,646,624,613,616,629,662,681,694,712,702,687,693,701,667,633,0,0,0,0,576,0,0,0,0,0,0,0,0,0,0,0,0,0,0,701,712,710,705,699,693,665,0,0,0,0,0,0,0,0,0,0,0,0,0,0,0,0,0,0,0,0,0,0,0,0,0,0,0,0,0,0,0,0,0,0,0,0,0,0,0,0,0,0,0,0,0,0,0,0,0,0,0,0,0,0,0,0,0,0,0,0,0,0,0,0,0,0,0,0,0,0,0,0,0,0,0,0,0,0,0,0,0,0,0,0,0,0,0,0,0,0,0,0,0,0,0,0,0,0,0,0,0,0,0,0,0,0,0,0,0,0,0,0,0,0,0,0,0,0,0,0,0,0,0,0,0,505,516,525,530,533,537,540,544,547,549,550,550,556,559,572,602,682,721,732,732,733,735,738,737,738,738,739,740,741,744,745,746,747,751,755,754,754,754,755,756,753,754,751,750,748,750,752,754,753,751,749,747,747,746,745,742,742,741,741,740,739,736,733,732,732,729,726,725,725,725,722,719,719,721,720,717,716,715,713,711,711,708,702,698,697,695,694,690,689,690,688,689,688,689,689,692,701,708,0,7616,0
0,853,854,858,863,862,854,855,856,856,854,854,857,860,863,862,865,862,860,855,858,859,862,862,864,861,859,857,856,858,858,856,855,858,858,858,855,857,854,857,857,859,858,861,859,855,854,856,858,858,856,854,852,855,853,852,853,854,856,856,857,855,855,854,853,852,854,854,853,850,852,852,854,853,850,849,848,849,845,837,793,772,766,765,764,765,764,766,768,767,767,766,766,763,766,769,768,766,764,766,768,771,775,774,771,768,768,769,769,768,767,767,768,769,770,771,774,776,778,775,773,771,770,768,767,769,771,773,776,775,776,774,773,774,775,777,776,775,775,771,767,757,740,733,729,728,727,731,733,734,732,731,726,720,716,716,715,716,713,711,709,705,698,692,694,697,699,693,689,684,682,682,685,686,687,680,675,670,671,669,665,661,659,658,656,651,648,646,643,632,626,625,629,631,622,617,618,622,625,622,619,615,611,608,606,603,602,603,606,606,603,601,599,597,598,597,596,594,592,590,588,589,588,587,586,586,585,584,582,584,583,581,578,577,577,577,579,583,587,589,594,600,607,636,0,0,0,712,669,680,692,697,710,716,708,693,694,701,685,0,0,637,592,511,0,0,0,0,0,0,0,0,0,0,0,0,0,0,0,0,706,706,704,698,695,670,0,0,0,0,0,0,0,0,0,0,0,0,0,0,0,0,0,0,0,0,0,0,0,0,0,0,0,0,0,0,0,0,0,0,0,0,0,0,0,0,0,0,0,0,0,0,0,0,0,0,0,0,0,0,0,0,0,0,0,0,0,0,0,0,0,0,0,0,0,0,0,0,0,0,0,0,0,0,0,0,0,0,0,0,0,0,0,0,0,0,0,0,0,0,0,0,0,0,0,0,0,0,0,0,0,0,0,0,0,0,0,0,0,0,0,0,0,0,0,0,0,0,0,0,0,0,0,501,514,523,532,537,542,546,548,549,549,553,557,566,592,665,713,730,734,735,736,737,738,739,740,741,742,744,747,749,749,752,754,756,755,755,755,755,756,755,755,753,755,754,754,754,756,757,755,752,749,748,746,745,743,742,740,738,736,738,736,735,731,730,727,724,724,725,725,722,718,718,718,717,716,715,712,711,711,710,704,699,695,696,694,695,692,694,693,692,689,687,688,694,706,721,735,0,7593,0
0,863,861,864,863,859,854,853,856,855,857,856,856,858,862,860,856,855,854,855,856,859,860,858,858,856,856,858,857,858,858,856,853,858,859,864,860,862,858,858,857,857,858,859,858,853,854,854,857,857,856,856,855,856,854,854,853,853,854,854,854,854,853,853,853,853,854,854,854,851,850,850,852,851,849,849,848,849,847,843,811,775,768,766,765,764,764,769,770,768,766,764,766,766,768,770,769,769,766,766,766,769,771,772,773,770,770,770,770,770,768,769,769,770,770,773,776,776,776,776,775,774,772,771,768,769,770,773,777,778,777,778,778,780,778,777,778,780,784,776,767,758,743,735,728,727,727,730,732,735,736,734,728,721,717,717,715,714,710,708,706,703,696,691,692,694,694,690,688,684,681,679,681,681,681,674,671,666,666,662,660,657,654,652,650,647,646,643,639,631,627,625,627,627,621,618,618,621,623,620,617,614,612,610,607,606,603,604,605,606,604,602,599,598,598,599,598,596,594,592,590,591,589,589,587,589,588,588,586,588,587,586,584,584,586,587,593,603,613,621,637,652,663,692,741,767,773,764,735,693,689,703,706,708,701,691,681,685,566,676,0,593,582,536,0,0,0,0,0,0,0,0,0,0,0,0,0,0,0,690,706,706,704,702,699,680,0,0,0,0,0,0,0,0,0,0,0,0,0,0,0,0,0,0,0,0,0,0,0,0,0,0,0,0,0,0,0,0,0,0,0,0,0,0,0,0,0,0,0,0,0,0,0,0,0,0,0,0,0,0,0,0,0,0,0,0,0,0,0,0,0,0,0,0,0,0,0,0,0,0,0,0,0,0,0,0,0,0,0,0,0,0,0,0,0,0,0,0,0,0,0,0,0,0,0,0,0,0,0,0,0,0,0,0,0,0,0,0,0,0,0,0,0,0,0,0,0,0,0,0,0,0,0,0,0,0,515,526,533,539,542,544,546,551,553,560,582,648,708,729,735,736,737,738,740,743,744,745,744,746,749,752,752,755,755,758,756,756,756,757,760,759,759,759,762,760,758,756,757,757,754,750,747,748,747,747,743,741,738,737,734,733,731,731,728,727,726,724,725,724,723,720,718,717,717,715,715,715,713,711,708,708,703,700,697,695,694,693,694,696,695,689,685,686,696,719,735,748,759,765,7649,0
0,869,867,867,862,860,855,855,855,853,854,856,858,857,858,853,851,849,857,861,863,862,861,860,855,852,854,860,860,859,855,854,852,857,857,861,861,860,858,855,858,856,857,856,855,851,850,851,855,855,855,856,854,855,855,855,855,853,852,853,851,851,850,851,851,851,851,851,850,849,849,849,850,849,850,849,849,849,848,844,826,786,768,766,766,767,769,770,772,766,765,764,767,768,770,769,769,771,770,770,768,768,767,766,769,768,771,770,772,772,773,773,772,771,772,775,778,778,778,776,776,774,774,772,770,770,772,774,775,776,777,781,781,782,780,781,782,785,787,780,770,763,748,736,728,727,728,731,733,734,733,731,728,722,720,717,715,711,709,707,706,702,695,691,691,691,690,687,687,683,679,676,677,676,675,667,667,661,662,658,657,654,651,650,648,646,644,641,638,632,630,627,627,626,624,622,622,622,623,621,618,615,615,614,612,610,608,607,607,608,607,605,603,601,601,601,601,599,597,595,594,595,593,593,593,595,595,597,599,601,601,601,600,603,610,621,645,664,672,685,703,715,715,717,748,774,783,781,763,717,696,700,696,691,693,684,673,629,0,540,528,549,548,0,0,517,0,0,0,0,0,0,0,0,0,0,0,0,0,684,703,708,709,707,704,689,0,0,0,0,0,0,0,0,0,0,0,0,0,0,0,0,0,0,0,0,0,0,0,0,0,0,0,0,0,0,0,0,0,0,0,0,0,0,0,0,0,0,0,0,0,0,0,0,0,0,0,0,0,0,0,0,0,0,0,0,0,0,0,0,0,0,0,0,0,0,0,0,0,0,0,0,0,0,0,0,0,0,0,0,0,0,0,0,0,0,0,0,0,0,0,0,0,0,0,0,0,0,0,0,0,0,0,0,0,0,0,0,0,0,0,0,0,0,0,0,0,0,0,0,0,0,0,0,0,0,0,0,512,522,530,536,541,546,549,553,574,626,701,726,734,736,737,738,740,744,747,747,747,749,752,756,757,759,757,757,756,758,758,760,761,761,760,761,762,761,758,756,755,754,751,748,745,746,746,746,744,740,736,733,732,730,729,728,726,724,723,724,724,722,721,718,716,714,714,713,712,713,712,712,708,703,699,698,697,698,696,694,692,694,695,692,687,690,717,741,755,763,770,781,776,0
0,879,873,868,860,859,856,855,857,855,855,858,863,861,854,849,849,849,856,861,865,860,860,858,858,855,855,858,859,862,857,855,851,856,856,861,860,860,856,853,855,856,856,855,856,856,855,853,853,854,852,855,854,857,856,855,857,854,853,851,849,850,847,849,848,851,850,850,848,848,848,849,850,850,852,852,851,849,845,842,834,809,782,771,770,769,772,771,772,766,766,765,767,770,770,769,766,770,772,774,773,772,770,766,766,766,769,771,773,772,773,776,776,777,777,779,778,777,777,779,776,773,772,775,775,775,774,775,775,776,777,781,782,782,782,786,789,788,790,785,778,772,757,740,729,728,729,732,735,735,735,732,731,726,724,718,716,712,710,708,705,702,696,692,689,689,687,684,683,683,680,676,674,673,672,669,668,664,664,661,659,656,653,652,650,647,645,641,640,638,636,632,631,632,633,631,629,627,628,626,623,620,619,620,617,616,613,613,611,612,611,611,610,608,608,609,610,608,606,604,605,607,608,609,610,613,616,624,629,632,639,642,650,659,675,695,710,720,723,727,730,731,727,728,741,768,781,784,778,754,719,703,692,695,690,684,0,0,649,0,548,0,0,0,0,0,0,0,0,0,0,0,0,0,0,0,0,0,0,679,708,715,716,713,709,695,0,0,0,0,0,0,0,0,0,0,0,0,0,0,0,0,0,0,0,0,0,0,0,0,0,0,0,0,0,0,0,0,0,0,0,0,0,0,0,0,0,0,0,0,0,0,0,0,0,0,0,0,0,0,0,0,0,0,0,0,0,0,0,0,0,0,0,0,0,0,0,0,0,0,0,0,0,0,0,0,0,0,0,0,0,0,0,0,0,0,0,0,0,0,0,0,0,0,0,0,0,0,0,0,0,0,0,0,0,0,0,0,0,0,0,0,0,0,0,0,0,0,0,0,0,0,0,0,0,0,0,0,0,0,0,515,525,536,541,548,564,612,0,725,736,739,738,739,741,747,750,752,753,754,755,757,759,761,760,759,758,761,761,764,763,763,762,764,764,763,759,756,754,750,747,744,743,744,744,742,740,737,735,732,732,730,729,726,722,721,721,722,721,719,718,716,714,712,712,713,712,710,709,708,707,704,700,698,700,698,697,691,692,690,694,693,696,693,729,756,763,770,777,778,783,0
