0,883,885,887,886,886,882,881,879,885,887,887,887,886,889,887,886,884,887,885,884,882,885,888,886,885,887,886,884,883,887,889,888,883,881,873,859,812,773,745,736,732,734,734,732,732,735,738,737,735,728,728,728,731,730,728,726,723,722,721,713,702,696,693,693,691,691,690,689,687,685,684,683,683,685,689,699,717,731,733,725,715,709,706,705,706,709,713,718,722,722,724,730,748,770,797,818,828,827,825,820,821,825,829,825,824,829,832,833,832,834,838,843,848,851,854,862,874,881,887,889,891,889,888,883,877,870,866,866,867,870,874,878,884,888,893,898,899,896,893,894,898,898,899,902,903,901,900,902,902,903,903,905,903,900,900,901,903,904,906,908,909,908,908,908,909,909,909,910,910,911,913,914,915,914,913,910,909,910,912,912,913,915,917,917,918,918,920,919,918,918,916,916,916,919,919,919,918,919,921,921,919,917,918,918,918,919,920,921,918,917,915,916,916,917,919,920,920,921,921,921,921,921,923,922,922,921,920,921,920,921,921,922,922,921,922,924,924,924,924,925,925,926,925,925,924,924,924,924,923,924,926,927,926,924,924,923,923,924,926,927,925,925,925,926,927,926,927,928,929,930,928,928,929,931,931,931,930,932,932,933,932,930,930,932,933,932,932,933,934,936,937,938,937,936,934,933,931,931,933,936,937,937,936,936,936,937,937,936,936,935,936,937,938,939,940,939,937,935,934,934,936,938,940,943,944,943,939,938,936,935,934,935,937,939,942,943,945,943,940,937,936,937,937,938,937,939,939,940,941,940,940,938,937,937,938,939,938,937,938,936,935,936,937,937,935,932,932,932,932,930,930,934,941,946,945,940,937,938,936,933,928,923,919,919,923,926,926,922,918,916,914,915,915,917,917,913,909,905,901,894,886,879,876,877,880,883,888,896,906,912,913,904,889,877,869,867,866,865,862,861,863,856,843,814,793,779,772,767,763,759,757,756,755,752,751,749,751,750,751,749,748,747,746,743,740,740,742,742,741,740,740,741,740,741,739,738,738,738,739,740,740,740,739,739,739,739,739,738,737,736,733,731,729,729,730,730,731,731,733,732,731,726,725,726,729,729,728,728,728,725,724,723,722,728,753,855,918,939,948,952,957,957,956,958,956,961,958,961,961,963,0
0,886,885,884,878,880,881,884,883,884,886,888,889,887,890,889,888,884,884,881,879,878,880,883,883,885,884,885,883,883,885,884,882,877,873,856,829,781,749,734,734,733,737,732,728,731,733,740,739,737,729,728,728,727,727,726,724,721,721,719,708,701,696,694,693,691,692,691,689,686,685,684,684,685,686,686,693,708,727,736,736,728,720,713,708,708,710,714,717,720,723,723,728,736,750,773,804,826,830,829,826,822,825,828,828,826,829,833,835,834,834,835,839,845,851,855,860,869,879,887,888,891,890,890,884,878,869,866,866,867,870,873,876,879,883,890,898,900,896,893,894,896,897,899,901,903,902,901,902,901,900,900,901,901,901,901,901,902,904,907,909,909,908,907,907,908,908,909,911,912,912,914,914,914,913,912,911,912,913,915,915,916,917,919,919,919,919,919,917,916,915,914,916,917,920,918,917,916,918,921,920,918,916,916,915,915,916,918,920,918,918,916,916,916,918,920,920,919,920,920,920,921,921,923,921,922,921,919,919,920,922,922,923,923,923,922,923,923,923,924,925,926,926,926,925,924,925,924,924,923,923,924,926,926,925,924,924,924,926,928,928,924,923,924,927,927,927,928,929,930,929,929,931,930,931,930,931,931,933,934,935,934,932,932,932,933,932,932,933,934,935,936,936,935,936,933,932,930,931,933,935,937,938,937,936,936,937,937,936,935,935,936,938,939,940,939,938,937,935,935,934,935,937,939,942,943,943,939,938,936,935,934,935,936,937,940,943,944,944,942,940,939,939,940,940,941,941,940,940,939,939,938,937,936,935,937,939,939,939,939,939,938,938,937,936,934,933,931,931,930,929,927,931,939,945,944,939,937,936,934,931,927,924,921,922,924,928,926,922,917,916,914,915,916,918,917,913,911,906,900,891,883,879,879,882,884,887,892,899,908,912,909,897,884,876,873,871,869,868,867,869,867,849,816,787,774,765,762,760,759,757,758,757,756,754,755,756,758,757,755,750,746,745,746,745,743,742,742,742,740,739,739,740,740,740,740,738,739,739,740,740,740,741,741,741,741,741,741,740,739,737,734,733,731,731,729,731,732,734,734,733,731,728,728,728,732,732,731,728,728,726,727,726,725,735,777,885,933,947,949,953,958,960,959,960,955,958,955,959,958,959,0
0,883,881,881,875,880,883,884,884,884,885,885,886,884,885,886,883,882,881,880,879,880,883,883,883,883,882,884,884,886,885,881,874,864,852,798,772,755,739,731,734,735,739,733,729,730,732,736,734,731,727,727,726,723,723,723,723,720,721,715,706,698,695,692,692,692,692,692,688,685,683,682,683,684,685,684,688,698,716,729,737,735,732,725,715,712,711,713,715,718,722,722,726,730,739,753,781,811,826,831,829,825,826,829,830,828,830,835,835,835,834,834,836,843,849,854,856,864,873,883,887,891,891,890,884,878,870,865,865,867,871,873,876,876,879,886,897,902,898,896,896,898,897,899,901,903,901,901,901,900,897,897,898,900,899,901,901,902,904,907,909,909,907,906,906,907,907,909,910,910,911,912,912,911,910,910,912,913,916,917,918,918,918,919,919,918,918,916,916,914,914,914,915,916,919,918,916,915,918,921,920,919,917,917,916,916,916,918,919,920,920,920,919,919,919,920,919,918,918,920,918,919,920,923,922,922,920,919,920,922,922,921,922,923,923,922,922,922,923,925,925,925,925,925,925,924,924,924,925,924,925,924,924,923,924,924,924,925,927,928,927,924,923,923,926,926,926,927,929,929,929,930,932,930,930,930,931,931,934,936,935,934,931,932,931,932,931,931,931,932,933,933,934,935,935,933,931,930,930,931,932,934,935,935,934,934,936,937,937,937,935,935,936,937,938,938,937,937,935,935,935,935,936,937,940,941,942,939,939,937,935,933,933,934,936,937,939,941,943,943,943,941,940,940,941,941,941,939,938,936,936,935,935,936,937,939,939,941,941,941,941,941,940,938,937,935,934,933,931,930,927,924,927,935,941,941,937,935,933,932,931,927,926,925,927,929,931,928,923,915,915,914,915,915,916,913,908,906,901,895,888,882,881,884,888,890,890,894,900,907,907,901,891,883,878,875,873,869,867,867,872,865,829,792,773,763,759,758,759,758,757,759,760,760,758,758,758,759,759,755,749,744,744,745,745,744,743,742,741,739,739,739,740,740,739,739,738,738,739,741,743,743,743,741,739,740,741,743,742,740,737,735,733,734,733,732,730,730,733,734,733,732,731,731,729,728,727,727,725,726,727,729,729,732,748,822,906,939,950,950,955,960,962,959,959,957,959,957,961,957,959,0
0,884,882,881,878,880,883,883,887,886,885,882,883,884,886,886,883,880,880,882,883,883,881,878,878,882,882,883,883,884,883,875,861,832,797,765,740,731,728,729,733,738,735,730,728,731,733,733,729,728,726,726,724,723,724,724,722,719,720,710,702,696,695,692,691,692,691,692,688,686,683,683,684,684,684,685,689,695,708,719,729,731,737,735,726,721,718,718,716,718,721,722,725,727,732,738,758,786,813,827,832,829,828,830,830,829,831,835,837,836,835,834,836,841,849,856,859,863,870,880,885,889,891,891,887,880,873,868,868,869,872,873,874,874,877,885,896,901,897,895,895,899,898,899,901,903,902,901,901,900,898,898,897,899,899,901,901,903,905,908,909,909,907,907,907,908,909,910,911,909,910,912,913,911,910,912,913,914,916,917,916,915,916,917,917,915,914,914,914,913,913,914,916,917,918,917,916,914,915,916,917,913,911,911,914,914,913,913,914,916,918,919,919,920,920,919,917,917,918,920,920,921,921,924,921,920,919,919,920,922,922,921,922,922,922,921,921,922,922,923,923,923,923,923,923,921,923,923,925,925,927,925,925,922,925,925,926,927,929,929,927,923,923,924,927,927,928,929,929,929,930,932,932,931,930,932,932,934,935,936,936,934,931,931,931,932,930,929,929,930,931,932,933,934,934,934,933,932,932,932,933,933,935,935,935,933,934,936,937,937,935,935,935,936,936,936,935,935,933,933,933,934,934,935,938,939,939,938,938,937,936,934,935,936,937,936,937,939,940,942,942,943,942,943,942,941,938,937,936,935,934,932,932,933,936,938,939,941,942,942,943,941,940,938,939,939,938,936,932,930,927,925,927,933,939,938,935,934,933,933,932,929,929,931,933,932,931,926,919,912,913,913,916,915,915,910,904,901,897,893,888,886,886,890,894,894,893,896,903,908,905,899,891,886,883,881,876,871,871,875,878,854,806,780,766,761,759,759,760,762,764,765,765,764,762,761,759,759,761,758,752,744,744,744,746,745,745,744,743,741,739,739,739,741,740,740,738,739,740,741,743,744,743,741,739,739,739,741,741,741,738,737,736,737,735,733,731,730,731,732,732,732,731,731,728,726,727,727,729,729,729,729,728,736,769,0,919,941,951,952,958,961,963,962,961,960,960,960,960,957,955,0
0,881,879,876,878,882,881,883,886,890,887,882,883,883,885,882,881,879,882,884,887,885,881,877,878,881,880,878,875,875,873,0,799,765,743,729,724,724,726,730,735,736,732,729,728,728,728,726,725,724,724,724,724,724,724,722,719,717,718,709,700,694,693,691,690,690,688,687,685,685,684,683,683,683,685,688,689,691,699,708,719,723,732,738,738,734,728,725,721,721,721,723,726,727,730,733,744,762,790,816,832,836,835,835,833,832,832,835,837,837,835,835,837,841,847,853,858,863,868,877,882,887,889,890,887,880,875,871,872,873,874,875,872,872,875,882,892,896,894,892,892,898,899,901,901,901,900,901,901,902,899,900,899,901,901,902,902,905,905,907,907,908,908,908,907,908,908,909,909,907,909,910,912,911,911,911,912,911,912,912,912,912,913,913,910,909,910,912,912,913,914,915,916,915,916,914,911,909,910,914,915,911,910,909,913,912,912,912,911,911,913,917,918,918,916,916,916,916,918,919,921,923,922,921,919,919,920,920,921,920,919,919,920,921,920,921,921,922,922,921,921,921,923,921,921,919,920,922,923,924,926,925,926,923,925,925,925,926,927,928,927,924,924,923,926,927,928,928,928,928,930,931,931,931,931,934,933,934,934,934,934,933,931,930,931,931,930,929,929,930,931,932,933,935,935,936,934,933,932,932,934,935,938,936,936,933,933,933,935,936,936,936,935,935,935,936,935,935,934,932,932,933,933,934,937,938,939,938,938,937,935,934,934,936,936,936,935,935,937,940,940,941,942,941,940,937,936,936,936,935,934,932,932,933,935,935,936,937,938,939,938,937,936,936,938,940,940,938,935,933,930,927,927,931,935,934,932,931,931,933,933,933,934,935,934,931,928,924,918,912,911,912,915,915,913,907,901,896,893,891,890,891,892,896,896,895,894,898,904,907,903,896,891,888,885,881,878,877,880,879,869,833,794,774,766,764,764,765,767,767,767,767,766,764,762,760,759,761,765,762,754,745,744,744,745,744,743,743,743,742,740,740,740,741,740,738,737,736,737,740,743,744,743,741,740,740,740,741,741,739,737,736,737,738,737,736,732,730,729,729,729,728,728,728,729,727,726,727,730,731,730,729,728,743,815,0,928,944,953,954,958,958,958,958,962,962,962,961,961,958,956,0
0,882,878,876,884,886,886,882,886,887,887,882,882,882,884,881,880,879,880,881,881,881,877,875,875,879,875,866,854,0,806,769,734,724,720,721,721,721,724,729,732,732,730,728,726,727,725,724,724,723,723,723,724,725,724,720,717,716,717,709,699,694,693,693,691,690,686,684,685,685,686,685,685,685,688,690,688,688,692,700,709,715,724,732,739,742,740,739,733,730,728,728,729,730,730,731,737,748,765,794,824,839,841,839,837,836,837,836,837,838,838,838,838,841,846,853,860,866,870,876,881,885,887,889,886,878,873,872,874,875,875,876,874,874,876,880,887,892,891,889,888,895,899,902,903,903,902,903,903,905,903,901,899,900,901,903,903,905,906,906,906,907,908,908,909,908,908,908,909,909,910,911,911,910,909,908,907,905,907,907,907,907,909,907,906,905,907,909,908,910,910,912,915,911,909,905,906,906,909,912,912,909,908,907,906,907,909,910,908,907,909,913,914,914,913,912,910,910,912,915,917,917,918,919,919,921,922,921,920,919,919,920,919,920,919,921,921,922,921,920,919,919,921,921,919,918,920,922,922,922,924,925,927,925,926,925,926,927,927,926,926,925,925,924,926,927,928,928,928,927,929,931,931,931,932,935,936,935,933,933,934,933,932,932,932,933,930,930,930,933,933,934,933,934,934,936,936,935,933,934,936,937,941,938,937,932,932,932,932,933,935,937,937,936,935,935,934,934,933,933,933,933,933,934,936,936,936,936,937,938,935,935,935,936,936,936,934,934,934,937,938,940,940,939,937,936,936,935,936,936,935,934,931,928,928,929,932,932,934,935,935,932,930,930,933,936,938,937,935,934,932,929,929,931,933,932,931,930,930,933,935,937,937,935,932,928,925,920,914,911,912,913,915,914,911,906,900,896,894,895,896,898,899,900,899,898,898,900,905,906,903,898,893,890,886,884,884,886,889,876,855,822,793,777,771,772,773,773,772,772,770,771,771,769,765,762,761,764,768,764,754,745,743,745,745,744,742,742,742,743,741,741,739,740,739,738,736,736,736,738,741,743,744,742,742,742,742,741,740,739,738,739,740,740,737,735,733,733,733,732,731,730,729,730,732,730,732,732,734,732,731,731,733,754,0,908,934,948,955,956,958,958,958,958,962,960,959,957,956,956,954,0
0,878,877,876,883,886,884,882,882,885,883,882,882,882,880,877,879,878,874,871,871,876,873,871,866,862,0,801,769,748,731,725,720,721,721,727,731,734,735,734,733,730,728,730,729,727,721,720,721,721,719,720,721,722,720,717,715,715,713,707,698,695,693,692,689,688,685,684,684,685,686,685,685,687,689,690,685,686,690,697,704,710,716,723,730,738,741,745,743,743,741,739,738,736,734,731,734,740,750,768,804,831,842,842,840,840,842,842,842,842,840,838,837,840,843,850,857,867,872,878,882,886,887,888,884,876,871,871,874,877,879,881,878,878,878,880,884,889,889,888,886,892,896,902,903,905,903,903,904,906,905,901,898,898,898,899,901,903,905,905,905,906,906,907,907,907,907,907,907,906,905,907,907,907,905,904,903,901,902,903,904,905,906,902,900,901,906,909,907,909,910,912,912,909,907,904,904,907,912,914,913,912,910,908,905,906,908,911,908,908,908,911,909,910,910,910,907,908,910,913,913,914,915,916,918,920,920,919,917,917,916,917,918,920,919,920,920,921,920,919,919,919,920,920,920,919,920,920,921,921,921,923,925,925,925,925,926,926,925,925,926,926,927,925,925,926,927,928,927,927,927,929,930,930,931,933,934,934,934,933,933,933,934,933,932,932,932,933,934,936,936,936,934,934,934,935,935,934,933,934,935,937,940,939,937,933,932,932,932,932,935,938,939,937,936,935,935,935,935,935,935,935,935,935,936,935,935,937,938,937,934,934,934,935,934,934,933,933,934,935,936,936,937,936,935,935,935,935,935,935,935,934,932,928,927,927,930,929,930,932,931,929,927,927,928,930,932,933,934,933,932,930,929,928,929,929,929,928,929,932,935,938,936,932,927,925,923,920,917,916,916,916,915,912,909,906,901,898,898,900,900,901,903,904,902,898,896,897,902,904,901,896,892,889,887,885,888,889,880,857,837,815,797,784,780,779,780,779,777,774,772,772,772,772,770,766,765,770,772,763,751,743,742,743,744,742,740,739,740,743,741,741,739,740,738,739,736,735,735,737,740,743,745,744,744,743,743,742,740,738,737,739,740,740,739,737,735,735,734,733,732,731,732,733,735,733,735,734,734,733,734,735,744,0,0,923,938,952,957,959,956,955,955,952,957,956,957,955,954,957,956,0
0,881,880,881,883,884,885,878,879,878,878,878,875,878,875,877,875,870,857,845,0,0,0,0,802,758,741,718,716,720,720,722,724,733,743,753,751,740,730,723,722,724,728,730,728,728,724,722,720,719,717,717,717,717,718,717,715,715,711,706,698,696,693,692,689,688,687,686,685,685,686,687,688,690,690,688,687,690,698,703,707,709,713,716,719,727,733,741,743,748,751,752,750,746,742,738,739,743,746,754,779,815,838,843,844,844,846,846,846,846,846,843,841,841,844,849,857,866,872,880,883,887,887,888,885,880,875,874,875,879,881,882,882,882,881,882,885,890,890,890,889,892,896,899,902,903,903,902,904,908,908,904,899,898,899,900,901,903,905,905,904,904,905,906,906,906,906,906,906,905,905,906,906,906,904,903,901,901,902,903,903,905,907,903,903,903,907,908,908,909,909,909,909,906,904,904,907,912,916,915,912,911,909,908,905,907,909,912,911,910,910,909,908,909,910,911,908,909,911,914,913,913,915,916,918,919,917,916,913,912,912,914,917,919,919,920,920,920,921,920,919,918,920,920,921,920,919,920,919,921,921,922,923,925,925,925,925,925,924,924,925,925,926,925,925,925,925,927,928,927,927,928,929,929,929,931,932,933,933,933,933,933,933,933,931,931,930,932,934,936,938,938,936,933,932,933,934,935,934,934,933,934,936,937,935,934,933,933,932,932,933,936,937,936,935,934,934,934,935,935,936,936,936,935,935,934,935,935,937,936,933,934,933,934,932,933,933,933,934,934,935,935,936,937,937,936,935,935,935,935,934,935,933,929,928,928,930,931,931,932,932,929,927,926,926,927,928,929,930,930,931,930,929,927,927,927,928,929,930,932,934,935,934,931,927,925,923,922,920,920,918,916,912,909,908,907,906,905,904,902,900,902,906,907,904,899,893,894,898,902,901,899,895,890,888,890,892,884,863,840,825,812,804,796,791,787,787,785,783,780,779,777,777,776,775,773,773,777,772,758,746,740,740,741,742,743,741,741,740,742,741,741,738,739,738,739,739,737,738,737,741,743,746,745,744,744,744,742,741,740,739,740,740,742,741,739,737,737,734,735,734,736,736,735,736,735,737,737,738,736,737,739,757,829,910,934,941,949,953,958,958,961,960,955,953,954,953,954,955,960,960,0
0,876,876,881,879,882,879,875,873,877,876,877,870,874,871,873,859,0,0,0,0,731,720,714,710,710,709,709,708,715,721,729,741,748,757,762,757,743,729,721,721,723,724,727,727,729,725,723,722,722,719,717,716,716,716,715,713,713,708,704,698,696,692,688,685,686,687,687,687,685,685,686,688,690,687,690,693,701,709,712,712,709,711,713,715,721,724,732,734,739,744,750,754,754,754,751,751,752,753,754,766,795,827,841,844,844,846,849,851,851,851,847,845,842,844,847,854,864,874,881,885,888,888,887,885,883,879,876,878,882,884,886,885,885,884,888,889,890,889,889,890,892,894,896,898,899,898,900,901,904,905,903,900,899,899,900,900,901,902,903,902,902,901,902,903,903,903,903,904,904,905,906,907,907,906,905,904,903,904,904,906,907,908,905,905,904,907,908,910,909,910,908,907,906,906,909,912,915,916,915,913,912,911,911,911,910,913,914,915,914,913,913,912,912,914,914,914,915,917,919,919,918,918,918,918,917,916,916,915,913,912,912,915,917,918,918,918,918,919,917,918,916,916,916,918,917,916,916,918,921,921,922,922,923,924,924,924,923,922,922,925,924,925,924,925,923,923,925,926,926,926,925,925,926,927,928,928,928,930,931,933,933,931,930,928,929,929,930,932,933,935,935,936,934,933,933,934,935,934,933,932,932,933,934,935,936,935,934,932,930,931,932,934,935,935,935,935,934,934,933,935,934,935,933,935,933,934,934,934,933,931,932,932,932,931,931,931,931,931,932,931,931,933,936,938,936,935,934,935,935,934,934,934,932,932,932,932,932,931,931,930,929,928,926,926,927,927,927,926,925,927,928,927,924,925,927,929,930,930,930,930,932,932,929,926,924,923,923,924,923,921,915,911,908,908,909,909,907,901,896,896,901,908,909,905,897,890,890,894,900,901,900,895,890,890,893,888,869,845,827,815,808,804,800,797,792,791,790,788,786,784,780,778,776,776,778,784,785,769,752,742,739,739,740,741,742,742,742,741,741,740,741,739,738,737,737,738,738,738,737,740,743,746,745,744,743,743,741,740,740,738,738,738,740,742,743,741,739,735,736,737,739,739,738,738,738,738,738,739,739,739,746,773,0,921,940,943,947,952,955,956,959,960,957,954,954,952,958,964,966,963,0
0,873,876,881,880,880,878,874,873,875,879,878,868,859,0,0,0,690,682,681,685,686,687,685,685,688,691,697,701,707,714,722,723,728,728,728,729,724,717,710,711,711,711,711,710,712,712,712,714,715,715,711,710,712,713,714,712,710,706,703,700,697,693,689,686,687,688,688,687,685,687,688,689,682,682,687,701,713,721,720,715,711,712,714,716,718,720,725,726,731,733,740,747,753,757,760,764,765,766,764,770,790,819,839,845,845,847,850,852,851,853,853,852,846,847,850,857,865,873,879,884,885,885,885,884,884,881,880,881,882,885,885,887,889,890,893,894,892,891,889,890,891,893,893,893,894,896,898,899,901,901,901,900,900,900,900,900,901,900,901,901,901,901,901,902,901,902,902,904,905,906,907,906,905,905,906,907,907,907,908,909,910,911,912,912,910,908,908,911,910,909,905,905,905,908,911,914,914,914,914,913,912,913,914,913,912,914,916,917,916,917,918,919,919,919,918,918,918,920,922,923,924,922,920,920,920,921,920,920,918,917,916,917,918,918,919,919,917,917,916,916,914,915,915,917,916,916,917,919,921,921,921,922,923,923,924,923,922,921,921,923,922,923,923,924,923,923,923,924,924,925,924,924,925,925,925,924,924,926,928,931,933,932,931,930,931,929,928,929,930,933,934,936,934,932,931,933,935,936,934,933,932,932,933,935,937,937,936,934,931,930,931,932,934,934,934,933,934,934,934,934,933,934,933,934,933,933,933,934,934,933,933,933,932,931,930,930,929,929,930,930,931,933,936,937,937,937,935,935,935,934,934,934,934,935,934,933,932,930,930,930,930,929,927,927,928,928,927,925,924,925,925,924,924,925,927,928,927,925,925,927,930,932,931,928,925,925,924,925,924,922,915,910,908,909,910,908,900,892,888,893,902,908,908,904,899,893,892,895,898,901,900,898,894,895,891,876,854,835,821,812,806,805,803,801,795,793,791,790,789,787,784,781,779,780,785,791,785,759,745,739,739,739,739,739,740,742,743,741,740,739,740,740,738,738,737,738,738,738,737,739,742,746,746,744,743,743,742,742,742,740,739,739,741,744,744,743,739,737,738,741,742,742,742,742,743,741,739,739,738,740,753,0,0,936,945,945,946,949,956,958,962,964,963,957,954,951,962,967,965,959,0
0,874,880,884,882,877,873,871,870,878,883,887,856,0,774,0,677,669,666,664,664,667,668,673,672,675,676,681,682,681,683,684,686,681,681,684,690,692,691,689,685,684,684,689,692,693,692,693,697,701,702,701,701,705,708,711,710,706,702,699,699,697,694,690,686,686,687,686,684,683,683,685,683,676,677,686,707,725,730,724,716,712,715,718,720,720,721,724,724,727,727,731,736,744,750,756,764,769,773,773,775,789,810,832,841,842,846,851,853,851,853,855,854,849,848,851,859,866,874,880,885,886,886,884,883,881,881,881,883,884,886,885,888,892,896,900,900,895,892,888,888,887,889,891,891,893,894,898,897,898,898,899,901,900,899,900,900,901,900,901,901,901,901,902,902,901,902,903,904,905,906,907,905,904,903,905,907,908,908,909,909,911,911,911,909,909,908,910,911,911,911,908,907,907,911,913,913,912,912,913,913,913,914,914,914,913,914,915,916,917,919,920,921,920,920,917,918,918,920,922,924,925,924,923,923,924,925,925,925,925,924,923,920,920,921,921,921,920,920,917,915,913,913,914,915,916,917,918,920,920,920,920,920,920,920,920,920,919,918,920,922,921,922,922,924,922,922,921,922,924,924,924,923,924,925,923,921,921,924,926,928,931,933,933,933,933,932,930,929,928,929,931,933,933,931,930,931,934,936,936,936,936,935,935,936,937,938,937,935,931,931,931,932,934,934,935,934,933,932,932,932,932,932,932,933,933,934,934,934,934,935,935,934,932,932,929,928,925,926,927,928,928,930,932,934,935,935,935,935,935,935,933,932,931,932,930,929,927,926,925,926,927,927,926,925,927,928,926,925,923,924,922,921,922,924,925,926,923,919,919,923,930,932,931,928,926,927,925,925,923,923,917,912,910,909,908,899,891,886,888,897,906,908,907,903,900,896,894,894,893,896,897,900,899,893,877,855,836,824,817,812,806,804,800,798,794,793,791,789,789,788,786,781,780,784,792,791,769,743,735,733,735,737,737,737,738,740,741,741,739,739,740,741,740,738,737,736,737,736,735,736,739,745,747,745,743,743,742,742,740,740,740,740,742,745,746,744,741,740,742,745,745,744,744,744,742,742,740,740,737,744,768,0,919,940,949,950,949,952,956,957,958,959,960,958,955,952,956,961,960,956,0
0,877,882,882,881,875,874,870,871,872,883,873,839,777,719,683,666,663,661,659,657,660,661,664,664,667,667,669,666,666,667,667,668,665,667,668,670,670,672,671,671,671,672,675,679,682,685,685,689,691,694,694,694,698,703,707,708,704,700,697,699,697,696,691,688,686,685,680,677,677,680,682,680,672,675,684,714,731,735,727,718,715,718,722,723,723,723,724,726,727,728,729,732,737,742,751,762,772,776,776,775,783,802,825,838,841,845,849,852,853,854,857,856,853,851,856,864,868,874,878,883,883,883,883,882,881,881,881,883,884,884,884,887,892,898,903,903,899,895,889,887,886,887,889,889,891,893,895,897,896,898,899,900,900,899,899,900,902,901,901,902,902,904,903,903,902,903,903,903,903,903,905,903,903,902,904,907,909,910,910,910,911,911,912,910,910,910,912,913,914,914,912,912,911,914,914,915,913,912,913,913,913,912,913,915,914,914,914,915,916,918,918,918,917,917,917,918,919,920,921,921,923,924,924,925,925,926,925,924,924,924,924,924,924,924,925,926,926,924,922,920,919,919,917,918,919,922,923,922,921,919,919,919,920,919,919,918,917,917,918,920,920,921,921,921,919,918,917,917,918,919,920,920,921,923,921,920,919,921,923,924,929,932,934,933,934,933,931,929,928,929,930,930,931,930,929,930,932,936,938,938,938,937,937,937,936,937,938,937,934,933,934,934,935,935,935,934,934,933,933,932,933,933,933,933,934,935,935,936,936,936,937,936,935,933,931,928,926,927,927,929,930,931,932,932,933,934,933,933,933,933,931,930,928,929,927,926,924,923,922,922,922,925,925,925,926,927,926,924,923,924,922,922,922,923,924,922,919,915,915,920,928,932,932,930,928,930,928,925,923,923,919,913,910,906,901,893,886,886,892,902,907,906,904,902,900,898,895,893,889,893,898,905,899,882,860,840,826,818,816,814,810,806,802,799,795,794,792,791,791,791,789,783,785,791,798,783,757,740,735,734,735,736,736,735,736,738,739,739,739,739,740,741,741,740,739,737,737,736,735,735,737,743,747,747,744,745,744,744,743,743,741,741,742,745,746,745,743,743,744,745,744,745,746,747,745,745,743,741,739,752,0,0,932,945,950,954,954,956,957,957,956,957,956,956,955,953,956,957,959,954,0
0,879,880,880,879,877,875,874,871,867,857,839,800,770,736,682,665,661,661,660,659,660,661,663,663,664,665,665,663,662,663,663,662,661,664,664,665,664,665,665,665,665,666,668,672,677,681,683,685,686,689,691,694,697,701,704,706,704,699,696,697,696,694,689,685,679,678,674,673,674,677,680,678,674,677,688,721,736,737,729,721,717,719,724,725,723,722,725,726,727,728,729,728,731,737,752,765,773,771,768,766,773,791,815,830,836,841,845,849,852,855,859,858,855,852,857,864,870,875,879,881,882,881,881,880,879,879,880,882,884,884,885,887,893,898,904,905,902,897,891,887,885,885,887,890,891,892,893,895,896,897,898,899,900,900,901,902,902,901,901,902,902,902,902,902,902,902,902,902,903,904,905,906,906,906,906,907,909,910,910,909,910,910,910,911,911,911,911,911,914,915,916,916,914,914,913,913,913,912,912,912,912,911,912,913,914,914,913,913,914,915,915,915,913,914,915,916,918,918,918,919,919,920,921,922,922,921,921,920,920,921,923,925,925,926,926,927,927,927,926,924,923,922,919,920,920,924,924,925,923,921,920,919,920,920,919,917,917,918,919,920,920,921,920,920,917,914,914,914,915,916,916,917,917,920,919,919,918,920,921,922,925,927,930,930,932,931,931,929,929,929,929,929,929,928,930,930,931,932,934,936,937,936,936,935,935,935,937,936,933,932,932,933,933,933,933,933,934,933,932,932,934,933,933,933,934,934,934,934,934,934,934,934,935,934,933,930,928,927,928,930,930,929,929,929,928,929,929,929,931,930,929,926,925,925,924,923,921,920,919,918,918,921,923,923,924,925,923,922,921,923,922,920,920,922,923,921,917,913,913,918,926,930,930,928,928,929,928,926,922,920,916,911,906,901,897,891,889,892,899,906,907,904,902,900,897,895,892,891,888,894,900,901,885,862,844,828,817,812,813,813,812,808,803,798,794,794,792,792,792,792,791,789,792,800,797,772,749,738,736,735,736,736,735,735,736,737,739,739,740,740,740,740,740,739,738,737,736,735,734,734,737,743,748,748,747,746,745,745,745,745,743,744,744,745,744,747,748,749,746,745,745,747,749,749,746,746,744,744,747,772,0,917,937,946,949,954,954,956,955,955,954,956,956,957,952,952,952,957,960,959,0
0,877,877,879,880,881,880,882,882,873,851,813,789,758,743,693,667,662,665,665,665,663,665,664,665,665,667,667,666,666,665,665,664,666,668,667,668,669,669,667,666,667,666,667,670,673,678,680,684,685,688,689,691,694,698,701,704,703,700,697,696,693,689,682,679,674,674,671,671,672,677,681,681,675,680,692,726,737,736,728,723,720,721,726,727,726,724,726,728,730,729,728,728,731,740,756,768,771,766,762,761,769,786,805,820,829,837,842,845,850,855,861,861,857,854,859,866,872,876,878,878,877,876,876,877,877,877,878,879,882,883,886,888,894,900,905,906,905,902,896,889,884,883,885,889,890,890,891,893,894,895,895,895,896,899,901,901,901,902,901,901,901,901,900,900,900,901,901,901,902,903,904,905,906,907,907,908,909,909,908,907,906,907,908,910,911,910,910,909,910,911,912,914,914,914,912,913,913,913,913,912,911,911,910,911,911,913,912,912,910,911,911,912,911,911,913,914,914,914,914,914,914,915,917,917,918,918,919,918,919,920,922,922,922,922,921,922,922,922,924,926,924,923,919,920,920,922,922,922,922,921,921,920,920,919,919,919,920,920,920,921,921,922,921,921,919,917,917,917,916,916,917,917,918,919,920,919,919,920,922,923,924,924,926,926,929,928,929,929,931,931,932,931,930,929,930,930,929,929,930,932,933,932,931,928,928,930,935,935,932,929,928,928,928,930,930,931,931,931,931,932,934,934,934,933,933,932,932,932,932,931,932,932,933,932,933,933,933,931,932,932,932,930,928,929,928,928,928,927,929,927,927,925,925,923,923,921,917,916,915,915,915,918,922,924,923,924,923,922,921,922,922,922,920,919,919,918,916,913,913,917,923,928,930,931,930,930,929,927,923,919,913,908,902,898,895,893,894,898,903,906,905,904,902,899,895,892,889,891,894,901,902,888,866,847,834,824,816,811,810,809,811,809,805,801,797,795,794,795,795,796,796,797,802,807,793,764,748,743,743,741,739,738,737,735,734,734,737,739,739,739,740,739,737,737,737,737,737,736,735,735,737,742,748,749,749,747,748,748,750,749,747,747,745,747,745,749,748,751,748,748,749,752,754,753,751,748,746,747,759,0,0,929,941,947,948,955,957,960,959,958,956,953,954,954,951,951,954,957,959,956,0
0,877,877,877,878,879,879,882,882,876,859,821,792,792,759,710,673,665,667,671,673,671,670,673,671,671,673,675,677,676,675,674,674,675,674,675,677,681,675,672,669,670,670,671,671,672,673,673,677,680,683,686,687,690,694,698,701,699,697,693,691,687,684,676,673,670,672,672,673,674,677,680,681,677,684,699,732,738,734,728,724,723,724,728,731,729,727,727,728,730,728,727,727,733,745,759,765,763,759,758,761,770,783,797,810,820,831,839,843,847,852,859,862,859,856,860,867,874,876,878,877,874,871,871,873,875,876,878,879,881,883,887,889,895,899,904,905,907,907,901,891,884,884,886,889,889,888,890,892,895,894,895,895,896,899,900,901,900,901,901,901,900,900,899,899,899,900,900,901,902,903,904,905,904,905,905,906,906,905,904,904,904,904,905,907,907,907,907,906,906,907,907,909,910,911,910,911,912,913,913,911,910,909,909,909,909,911,911,911,909,910,911,910,908,908,909,909,909,910,909,909,910,911,914,913,914,915,916,916,917,918,921,920,920,918,919,918,918,918,919,920,919,920,919,918,918,918,919,919,920,920,920,920,918,916,917,918,920,920,921,920,920,921,921,922,921,921,922,923,923,923,923,924,923,923,923,923,923,923,924,924,922,921,922,922,925,926,929,930,931,933,933,933,931,929,928,927,927,926,927,928,929,930,928,924,919,919,922,929,930,927,924,924,924,927,928,929,930,930,930,931,932,932,931,931,931,930,930,929,930,930,931,931,931,931,932,933,933,932,932,931,930,927,927,927,927,926,927,926,927,925,926,925,925,924,922,921,917,917,918,918,917,918,922,923,923,923,922,922,921,921,920,921,919,917,916,916,915,913,913,917,922,926,929,932,931,931,930,928,923,915,908,904,900,897,897,896,900,901,905,907,905,904,900,896,892,889,890,895,902,903,893,871,851,837,828,821,814,810,807,805,806,807,805,802,798,796,796,798,799,800,802,806,811,809,784,759,747,744,741,738,737,738,738,737,735,734,736,737,737,738,739,739,737,736,736,735,735,734,734,735,737,744,750,751,750,748,749,749,751,752,751,750,748,749,749,752,752,756,753,754,753,757,757,755,750,746,747,755,783,0,910,935,944,945,946,951,955,957,962,960,959,953,952,950,947,947,948,952,953,953,0
0,876,876,878,881,880,876,876,876,873,858,834,807,779,762,726,684,673,671,674,677,677,676,682,683,685,683,687,688,687,685,686,685,685,682,685,688,691,684,678,675,675,676,677,676,673,671,670,670,672,673,675,676,680,683,686,690,691,691,688,683,677,677,673,672,669,672,674,676,677,679,681,682,680,688,705,736,739,732,727,723,724,725,729,733,732,730,728,730,731,731,730,731,740,752,760,761,759,759,760,765,771,781,792,804,815,824,834,841,846,849,856,859,858,858,862,868,873,876,877,874,870,868,869,871,873,875,878,878,880,881,886,888,894,899,902,904,906,907,904,895,887,885,886,888,887,888,891,893,895,894,895,894,896,898,900,900,899,900,900,901,900,900,900,899,899,900,900,901,902,904,904,904,902,903,903,906,906,905,903,903,903,904,905,905,906,905,904,902,901,903,903,905,906,908,909,910,910,911,911,909,908,909,908,908,906,909,909,910,909,910,910,909,908,907,906,905,907,909,908,908,910,912,913,913,914,915,914,913,913,915,918,918,919,918,919,918,918,918,918,919,919,920,919,917,917,916,917,916,917,918,917,916,915,915,917,918,918,918,917,918,917,919,919,922,923,925,926,927,927,929,929,929,928,929,929,928,928,927,926,924,920,918,917,917,918,921,923,926,928,930,930,929,928,926,924,924,924,923,923,924,926,928,927,924,916,915,916,924,928,927,925,923,923,926,928,929,928,929,928,929,930,931,930,930,930,929,929,928,929,929,930,930,929,929,930,931,932,931,931,930,929,927,928,927,928,927,928,928,927,926,928,929,928,928,925,924,920,920,921,922,921,921,924,925,925,924,923,923,921,920,919,921,919,916,914,915,915,913,913,915,919,926,930,933,933,932,930,928,921,912,905,902,900,898,900,900,903,903,905,906,905,903,900,896,892,891,894,902,905,896,877,858,843,834,826,821,817,812,808,804,804,805,805,804,800,799,800,803,806,808,810,815,817,807,778,756,748,745,743,739,737,737,736,735,733,733,735,736,735,737,738,738,736,735,736,736,737,736,735,735,736,742,749,753,752,750,749,752,753,755,753,752,751,752,753,754,753,756,756,759,759,760,758,753,751,748,753,771,837,0,925,938,943,944,947,953,957,957,960,958,956,951,951,947,947,947,950,951,949,948,0
0,877,879,881,885,880,874,869,870,867,860,839,813,768,726,723,690,677,673,676,679,682,682,690,690,691,685,690,693,694,692,690,687,685,685,690,694,694,689,682,680,679,680,680,680,679,676,672,668,668,667,668,668,672,673,675,678,680,681,678,675,673,674,672,671,670,673,675,676,677,679,681,682,684,696,713,736,736,728,723,721,721,722,726,729,728,727,727,729,730,730,731,733,744,755,762,760,758,760,764,768,772,780,790,802,810,819,829,836,842,846,851,854,855,859,864,869,872,873,874,871,868,866,868,871,873,876,879,879,880,880,883,886,891,897,900,903,904,906,903,895,889,887,889,888,888,887,891,894,896,895,895,896,897,897,897,898,897,898,898,899,898,897,897,897,898,898,899,899,901,904,903,903,900,901,902,902,902,901,902,902,904,905,905,904,903,899,896,894,896,898,900,900,902,904,908,908,908,909,908,908,907,908,907,907,907,908,909,911,912,911,911,909,908,904,905,905,909,910,909,909,910,913,913,913,914,915,912,911,911,913,915,916,919,919,921,919,918,917,918,918,919,919,919,917,917,917,917,917,916,917,915,915,914,917,918,917,917,917,917,917,917,918,917,918,919,922,923,925,925,927,928,929,930,930,930,931,931,930,928,925,921,920,918,917,917,919,922,924,927,928,926,925,923,923,922,922,921,921,922,923,924,927,928,927,918,916,916,923,927,928,926,924,923,926,928,929,928,928,927,928,928,929,927,927,928,929,929,928,928,930,930,931,929,930,930,931,932,931,930,929,927,926,926,926,926,925,927,927,927,927,928,930,931,931,929,928,927,928,929,929,928,926,926,927,927,926,923,922,920,919,918,920,919,917,916,916,915,913,911,912,917,924,930,931,931,929,928,925,918,909,903,901,901,901,903,904,905,904,906,906,905,902,898,896,894,895,900,905,898,881,861,848,837,830,825,823,818,813,809,804,803,802,803,802,801,801,804,808,810,813,816,820,817,800,769,752,746,745,743,740,738,737,736,735,734,734,733,734,733,735,736,737,737,736,737,737,736,735,735,736,737,743,750,754,753,751,750,753,755,757,755,754,754,754,755,756,758,760,760,760,756,758,757,755,752,752,764,806,0,923,938,944,945,947,950,952,953,955,957,954,952,950,951,949,949,950,952,951,950,948,0
0,876,880,883,887,881,875,871,872,871,863,845,841,0,739,716,696,681,675,675,677,680,683,687,689,691,691,693,693,694,692,688,683,682,684,688,692,692,690,684,683,681,680,681,682,684,682,678,673,671,668,667,665,666,666,666,668,672,673,673,672,672,672,673,672,672,675,677,679,681,684,686,687,694,706,721,730,727,721,718,719,718,718,722,723,724,727,731,735,733,733,734,737,747,756,762,761,761,763,765,769,774,783,792,801,808,818,827,833,839,844,849,852,854,860,864,869,870,872,871,868,866,865,867,869,871,873,876,877,879,879,881,885,891,898,901,902,902,903,902,897,890,887,887,889,889,890,892,895,896,894,895,896,896,896,896,897,897,897,897,896,895,896,897,896,898,898,899,900,903,906,905,904,902,902,902,902,901,901,903,903,905,906,905,902,900,897,895,895,897,899,902,901,903,904,907,906,905,905,906,906,905,907,907,907,906,907,907,909,911,911,910,909,909,905,905,905,910,909,909,910,912,912,912,913,914,913,911,909,911,912,914,916,917,919,920,918,916,915,917,918,917,917,917,916,916,917,917,916,916,918,916,914,914,918,919,917,914,912,913,914,914,916,917,919,919,921,921,921,922,923,925,925,926,927,927,926,927,926,927,925,922,922,920,920,919,919,921,923,925,924,924,922,921,921,922,922,920,920,920,923,924,926,927,928,925,924,923,925,926,927,926,924,924,925,927,928,927,927,927,927,928,928,927,925,926,928,929,929,930,931,930,931,932,932,933,932,933,932,931,929,928,927,927,926,926,925,926,927,929,929,930,931,931,931,930,930,930,929,930,929,929,928,927,927,927,926,924,921,919,917,918,919,920,918,918,917,915,911,910,911,916,923,928,928,927,924,924,921,915,907,903,902,902,903,906,907,907,905,905,903,902,899,898,898,900,904,906,902,886,866,850,841,833,830,826,824,820,817,812,807,803,801,802,801,803,805,810,813,816,819,822,823,815,791,760,747,743,744,744,743,743,741,737,736,736,736,734,734,732,733,734,736,738,737,737,737,737,736,736,736,738,743,750,755,755,754,753,757,759,759,757,757,757,757,756,756,757,757,759,762,761,758,755,754,754,758,778,837,903,935,945,945,944,946,950,952,952,952,955,953,950,948,952,953,955,953,951,952,949,948,0
0,874,878,879,884,880,875,871,871,870,864,855,849,784,743,716,703,685,678,677,678,680,683,687,688,687,689,690,691,692,691,687,682,682,684,687,689,690,690,688,686,683,681,682,683,685,684,683,683,681,678,673,668,667,664,665,664,667,667,669,669,672,673,674,674,675,679,682,685,688,690,691,693,701,711,720,721,716,713,713,715,715,715,717,716,720,726,735,739,738,734,734,738,749,757,762,762,761,763,765,769,775,784,792,799,806,817,826,831,836,840,847,851,854,859,864,869,870,870,867,866,864,864,864,866,869,873,876,878,879,878,881,886,893,899,902,902,902,904,903,898,890,887,887,889,889,890,892,894,896,895,895,896,896,895,896,897,896,895,895,894,893,893,895,896,898,898,899,900,903,906,905,903,900,901,902,900,900,899,903,904,905,904,902,901,898,895,893,894,897,899,902,902,904,904,906,905,905,907,908,907,905,906,905,905,905,907,907,907,908,908,908,908,907,904,907,909,913,910,909,910,912,910,909,910,913,912,910,909,911,914,914,913,913,915,917,916,914,914,915,916,915,915,915,914,915,916,916,915,916,918,918,916,914,917,918,917,913,910,910,912,913,915,916,916,916,917,918,918,918,919,920,920,921,922,921,919,918,919,921,920,921,922,924,923,923,923,924,924,923,923,924,924,923,923,923,923,920,920,921,924,925,926,925,926,927,928,928,927,926,924,923,923,922,925,926,926,926,926,927,927,926,926,926,926,927,927,929,929,930,930,930,931,933,934,935,934,933,931,932,931,930,928,928,927,926,924,924,926,928,930,929,929,927,927,927,928,928,929,928,927,927,926,924,921,920,919,918,916,915,914,915,916,917,918,916,916,914,912,911,912,916,921,925,923,922,919,919,917,913,908,903,903,904,905,906,907,906,904,903,901,899,897,898,901,906,909,904,890,871,855,843,836,830,828,825,824,821,819,815,810,804,800,799,800,806,812,817,818,820,824,826,824,811,782,755,746,743,744,743,742,743,744,742,740,739,738,735,733,731,732,733,735,737,737,737,736,736,735,736,737,739,744,751,755,756,756,757,760,760,759,758,759,758,759,759,760,760,759,760,764,762,760,758,756,754,760,788,867,914,938,947,949,948,950,950,949,947,948,953,953,953,950,952,953,956,954,952,952,953,953,0
0,867,871,875,879,875,872,872,874,873,868,863,852,782,748,715,706,689,681,679,679,680,681,683,682,684,687,689,690,691,692,688,686,684,685,686,685,687,687,687,685,683,682,684,685,685,684,684,686,687,686,683,678,672,667,665,662,663,663,665,667,669,671,672,674,675,679,686,695,698,699,699,702,707,711,714,712,709,709,711,713,714,714,715,715,720,730,742,748,747,742,740,745,752,759,760,763,764,765,766,771,778,786,791,797,804,815,825,832,836,840,845,850,854,858,864,869,870,868,865,862,861,861,862,864,867,871,875,877,879,879,881,887,894,899,900,900,901,902,902,898,891,886,885,888,890,892,894,895,896,894,895,895,896,896,896,897,895,894,893,893,893,894,896,898,899,898,898,899,903,906,905,903,901,901,901,901,902,902,904,904,905,901,898,896,894,893,893,895,898,901,904,905,905,904,904,904,905,908,909,907,905,904,905,905,905,905,904,905,904,904,904,906,905,905,907,910,912,910,909,911,912,909,908,909,912,910,909,908,911,914,914,913,912,913,915,915,914,913,913,914,913,914,914,914,914,915,916,914,914,916,918,917,915,916,917,917,912,909,909,911,912,913,912,913,913,912,914,913,913,913,915,916,916,917,917,915,914,911,911,909,913,915,921,921,922,922,923,922,922,922,923,923,923,923,923,923,922,922,923,925,926,926,925,925,925,927,928,928,926,924,922,922,922,924,924,925,925,926,927,927,927,926,926,927,928,928,929,930,931,930,930,929,931,932,934,933,931,930,931,930,931,929,929,929,928,927,925,926,928,930,930,928,927,925,925,926,926,927,926,925,924,922,921,918,918,916,915,913,914,913,914,915,916,918,917,917,915,914,913,912,915,918,921,920,919,917,918,916,914,909,905,903,904,906,907,907,906,904,902,899,897,897,902,908,914,911,896,877,860,848,840,835,831,829,826,825,823,821,818,814,809,803,801,803,811,818,822,824,826,829,830,826,811,780,756,747,746,748,748,748,747,744,741,739,738,738,735,734,732,733,733,734,736,737,738,738,738,737,737,737,738,743,750,756,757,758,759,758,757,758,759,761,759,760,758,757,756,756,759,763,764,760,759,756,756,766,818,887,919,932,939,943,944,945,946,946,945,947,950,951,951,949,951,951,954,953,953,956,957,958,0
0,869,872,877,881,877,873,870,869,869,868,867,852,824,762,729,711,687,683,681,681,682,681,681,680,681,683,683,684,686,690,688,686,684,685,687,686,687,686,687,684,684,684,685,685,684,684,683,685,687,689,690,688,681,674,670,666,664,664,664,665,666,669,668,670,671,674,682,693,700,701,703,706,709,710,709,707,707,708,712,712,714,712,713,715,723,733,744,752,753,750,748,752,757,761,763,764,765,766,768,774,780,787,792,797,802,812,824,833,837,839,844,848,854,858,864,867,869,863,860,858,859,860,861,862,868,872,877,878,880,881,884,889,894,897,897,899,900,900,899,896,892,887,886,888,891,892,893,894,895,895,894,895,895,896,897,896,894,892,891,893,892,892,893,895,898,897,897,898,901,903,902,901,899,899,900,902,902,903,905,904,903,898,894,892,890,890,891,893,897,900,903,903,904,904,904,905,908,912,912,908,905,905,904,904,904,905,904,902,901,901,901,903,903,905,907,910,911,910,909,911,911,908,907,908,910,910,908,909,911,914,912,909,908,911,913,914,913,911,910,908,910,911,915,915,916,916,916,914,913,915,918,918,916,916,916,916,912,911,909,911,911,910,909,909,911,909,910,909,911,912,913,913,914,914,915,916,915,911,908,906,910,913,918,917,919,920,922,921,921,922,924,925,924,924,922,923,922,924,924,926,927,926,925,925,925,927,930,930,929,926,923,922,922,924,924,925,926,925,926,926,927,926,926,927,929,929,929,929,929,928,927,927,927,928,931,930,929,928,929,929,929,929,929,930,930,928,926,926,927,929,928,927,925,924,923,923,923,922,921,920,919,919,919,917,916,914,914,913,914,914,913,914,915,917,917,917,917,917,914,912,911,914,917,918,918,918,918,915,913,909,905,902,902,905,908,907,907,905,903,899,899,901,908,914,913,903,884,867,853,845,839,835,830,827,824,824,823,821,819,817,814,808,805,809,817,825,826,829,829,831,830,823,810,786,765,753,751,751,750,749,746,742,739,737,736,735,733,733,733,734,733,733,734,736,737,737,736,736,736,736,737,743,751,756,758,757,758,757,756,757,758,759,758,757,757,757,758,758,760,759,759,758,761,759,762,782,858,906,925,934,938,944,944,946,942,945,946,951,950,951,950,951,949,948,949,952,954,958,958,959,0
0,870,873,877,880,877,873,871,871,871,871,868,858,827,786,755,706,692,682,681,680,682,680,679,679,680,681,682,683,685,688,688,685,682,683,685,686,686,685,685,683,684,685,685,684,683,684,683,685,686,689,691,691,687,682,677,671,666,665,664,666,665,667,665,666,666,669,674,683,691,697,704,709,711,710,710,708,709,710,714,715,715,713,712,717,727,739,749,757,761,761,761,762,763,764,765,766,768,771,775,781,785,790,794,797,801,809,823,834,838,841,844,849,854,858,864,866,866,860,858,856,858,858,860,862,867,870,875,877,881,884,886,890,891,893,894,898,899,900,896,894,892,889,888,889,891,893,893,894,894,894,894,894,895,896,896,894,892,892,891,894,894,894,893,895,897,897,897,898,901,901,902,900,899,898,898,901,903,904,905,904,900,896,892,890,888,889,892,895,899,901,904,904,905,905,905,906,909,912,912,909,906,905,904,904,903,902,902,902,902,902,902,903,904,907,909,910,910,908,909,911,911,908,907,909,911,911,910,912,912,914,911,908,907,909,910,911,909,907,906,903,904,907,912,914,913,915,915,914,913,915,918,916,913,913,914,915,914,912,911,910,909,908,908,909,910,910,911,910,911,910,912,912,912,912,913,917,917,913,908,906,910,913,913,911,913,917,919,920,921,922,925,926,926,923,922,922,922,923,924,925,926,926,926,927,927,929,930,931,931,928,925,923,922,922,924,925,926,925,925,925,927,927,928,928,929,929,929,928,928,927,926,924,924,925,928,929,929,928,928,927,927,927,927,928,929,929,928,927,927,928,929,928,928,926,925,924,924,921,920,918,919,919,921,921,921,919,918,917,918,918,917,916,915,918,918,918,917,915,914,912,910,911,913,916,918,919,920,916,912,909,905,903,902,906,909,909,909,906,903,901,903,908,914,916,908,894,877,861,850,841,836,833,831,828,825,825,825,823,820,819,818,815,816,820,826,830,831,832,831,829,827,821,811,791,774,760,756,755,753,750,745,741,737,737,736,735,734,734,736,735,734,733,735,737,739,738,737,736,736,735,735,741,750,756,759,758,757,755,755,758,759,759,758,758,757,756,756,757,759,758,758,756,758,757,768,808,0,921,932,937,939,940,941,941,942,946,948,953,951,952,950,949,950,950,950,949,951,953,952,952,0
0,872,875,876,879,878,876,870,869,871,874,871,862,841,797,767,727,692,686,681,680,681,681,679,680,680,681,680,680,682,684,686,685,683,682,684,687,688,687,686,687,688,687,686,684,684,685,685,684,686,688,690,690,689,687,685,680,675,669,666,667,668,669,666,666,666,667,671,676,682,687,695,703,709,711,713,711,712,712,716,717,718,715,713,719,730,741,749,757,765,768,771,770,769,766,767,768,770,775,781,786,787,789,791,794,800,809,823,834,839,841,845,851,855,859,863,864,862,856,853,853,856,858,859,861,865,870,875,877,880,884,888,890,892,893,894,897,900,900,896,894,891,890,888,889,891,893,893,893,893,893,892,893,893,894,894,892,890,891,890,893,894,894,893,894,897,898,898,899,901,900,899,900,897,897,896,899,901,903,903,902,897,893,890,889,889,893,898,902,904,905,905,905,905,904,906,907,909,911,911,909,906,906,904,903,901,902,903,904,905,906,905,904,905,906,908,909,908,907,908,912,913,911,909,910,912,913,913,914,913,912,908,906,905,906,907,907,907,906,905,902,902,905,910,911,912,914,916,915,915,917,918,915,910,910,912,915,914,912,911,910,907,906,908,910,911,908,908,908,909,910,912,907,905,905,910,914,915,915,912,911,913,914,911,909,912,915,918,920,921,921,923,926,927,925,922,922,921,920,920,922,923,923,924,925,926,927,928,929,930,929,927,924,922,922,923,925,926,925,925,924,924,925,927,928,927,927,927,927,927,925,924,922,923,924,926,926,927,925,925,925,925,925,924,926,927,929,927,926,926,926,927,927,928,927,926,924,922,919,918,917,919,921,924,924,923,922,921,921,920,920,917,916,915,916,916,916,915,913,912,910,909,908,910,914,917,918,920,916,911,907,905,904,904,907,909,910,909,906,904,904,908,914,916,911,898,884,870,856,846,840,837,834,832,827,823,823,823,822,819,819,821,823,827,833,835,836,836,836,832,827,822,816,806,790,776,765,760,757,753,749,743,740,736,737,736,735,733,733,736,736,736,734,736,738,739,737,735,734,734,733,733,740,750,757,759,760,759,759,758,758,758,759,760,759,758,757,757,756,758,758,758,756,756,755,769,820,891,924,938,942,944,943,944,945,945,949,951,954,951,952,951,950,950,948,949,950,950,953,949,950,0
0,871,873,873,876,876,875,870,870,872,876,872,858,836,809,784,762,714,691,685,683,682,683,682,682,681,682,681,681,682,683,685,687,686,685,684,686,688,687,688,691,691,689,687,686,686,687,687,686,687,688,689,689,688,687,686,685,681,675,671,671,669,669,667,668,667,669,670,672,676,681,688,694,702,707,712,714,716,716,718,720,722,722,721,726,736,747,754,762,771,776,777,774,770,767,767,770,774,780,784,787,787,788,791,795,802,811,824,836,841,843,847,852,856,858,860,860,857,854,853,853,853,855,857,860,863,866,871,875,877,882,887,890,892,893,895,898,900,900,895,893,890,889,886,888,890,893,894,893,892,892,892,892,892,893,892,890,889,890,892,894,896,896,896,897,898,898,898,899,900,900,899,899,898,899,897,899,901,902,900,898,895,893,891,892,895,900,904,905,904,904,904,904,905,905,907,907,908,909,910,909,906,905,903,903,902,903,905,908,909,908,907,907,908,909,909,909,908,908,909,913,913,911,910,911,913,914,912,909,909,909,908,906,905,904,905,905,907,906,906,904,904,906,910,912,912,914,915,914,913,915,917,914,910,909,913,915,915,912,912,911,909,907,909,912,910,908,908,909,909,908,910,905,904,903,907,911,914,916,914,913,914,913,911,910,911,914,915,918,920,919,920,923,926,926,925,922,920,918,919,920,921,921,923,924,925,924,925,927,928,928,927,924,923,922,924,924,923,923,923,923,922,923,924,927,927,927,927,927,926,924,923,922,923,922,923,923,925,925,925,925,925,924,922,922,922,924,925,925,925,924,926,926,928,928,926,924,922,921,920,920,922,923,924,924,922,921,919,919,919,918,916,915,914,915,916,915,914,912,910,908,908,908,909,911,914,917,919,917,912,908,907,907,907,908,909,910,909,906,905,909,914,919,916,907,891,875,861,851,846,842,839,835,832,827,825,824,823,823,821,822,825,830,837,842,843,842,840,838,831,825,819,814,802,786,774,767,766,763,757,751,743,740,735,736,735,735,735,735,736,737,737,737,738,739,740,738,737,736,736,733,733,740,750,758,760,761,759,759,759,759,760,760,761,761,759,757,756,756,757,758,759,756,755,755,770,821,890,924,939,945,946,944,944,944,948,949,952,950,949,949,950,949,948,948,951,951,950,951,949,951,0
0,875,873,870,872,875,874,871,870,872,874,872,865,835,816,812,775,743,698,688,686,683,685,683,682,683,684,683,680,682,682,685,689,689,688,685,687,689,689,692,693,692,689,688,688,690,690,689,688,689,689,690,689,689,688,688,689,687,683,678,676,671,669,668,667,668,669,672,673,675,678,681,684,691,698,707,715,719,718,719,720,726,726,728,734,744,753,759,767,776,779,779,775,771,768,770,773,777,780,780,781,784,788,794,798,804,814,826,838,843,845,848,853,855,855,855,854,852,850,849,850,851,854,857,860,863,866,870,874,877,881,886,890,892,894,895,898,900,898,893,890,888,887,885,886,889,892,893,893,892,891,890,890,891,891,892,890,890,890,891,892,893,894,895,897,898,898,898,900,901,900,899,900,899,899,898,900,900,900,898,896,894,893,894,896,899,903,905,905,904,903,903,903,904,905,906,907,907,909,909,906,903,903,903,904,904,905,907,909,910,909,908,908,908,908,908,907,908,908,910,912,912,909,908,908,909,909,905,904,903,904,903,903,903,904,906,908,910,909,909,906,907,909,912,914,914,914,913,912,911,912,915,914,913,912,914,916,915,913,913,913,912,911,913,914,912,908,908,908,909,909,910,905,905,905,909,911,912,913,912,913,914,914,914,914,914,914,914,918,919,918,917,919,923,925,927,923,920,917,918,919,920,920,923,924,923,922,923,925,926,927,927,925,922,921,923,924,924,924,922,921,920,920,921,925,926,926,926,927,925,923,921,922,922,920,919,920,922,923,924,923,923,923,922,921,921,923,924,924,924,923,924,925,927,929,927,925,922,921,920,920,921,922,921,920,918,916,916,916,916,914,913,913,914,914,914,914,914,911,908,907,907,907,908,908,911,914,916,915,910,906,906,908,908,907,909,910,909,907,909,915,919,919,911,901,883,866,853,847,846,844,843,839,835,829,826,824,823,823,824,828,831,836,842,847,846,845,841,837,829,821,816,812,799,783,773,769,769,766,761,754,746,740,735,733,733,734,734,735,736,736,736,735,736,736,736,734,734,734,735,734,736,743,752,758,759,760,759,759,759,758,759,761,761,761,759,759,758,757,758,759,759,756,755,757,773,821,891,921,937,942,946,945,946,947,948,948,950,949,947,947,949,949,946,943,946,949,949,949,948,948,0
0,876,874,872,871,875,875,873,873,872,870,867,862,849,818,773,803,743,698,689,686,683,684,684,684,687,687,686,683,686,686,688,691,692,692,688,687,689,690,694,692,692,689,689,690,691,691,690,691,691,691,690,690,690,691,691,690,690,689,687,684,676,671,668,667,668,668,671,673,675,675,675,677,684,693,705,716,721,720,720,721,728,730,736,744,753,762,767,775,781,782,779,774,771,771,773,776,777,777,776,780,787,794,799,803,807,815,827,839,843,844,848,852,852,850,848,848,847,847,848,849,851,852,855,859,862,865,870,875,880,882,886,889,892,894,895,897,898,895,891,887,886,885,884,885,888,891,892,893,892,891,889,890,892,892,893,890,890,889,891,893,893,894,896,898,897,897,898,899,901,900,900,899,900,900,899,900,901,901,899,896,895,897,902,904,904,903,904,905,903,903,902,903,905,906,907,907,907,909,907,905,901,901,901,903,905,907,908,909,909,909,908,909,909,908,908,908,909,908,911,910,909,905,905,906,906,905,901,902,899,901,899,901,900,903,905,906,907,907,909,908,909,910,915,916,914,911,910,910,910,911,914,915,914,912,913,914,915,914,916,915,914,912,913,912,913,911,911,911,911,910,910,910,911,910,910,911,912,914,913,913,913,914,915,914,912,912,914,918,919,918,917,917,918,922,926,924,921,919,919,919,919,919,922,924,924,923,923,925,926,927,926,924,922,920,922,923,924,923,922,923,922,921,922,925,926,926,924,925,923,922,920,921,921,920,919,918,919,920,922,923,923,923,922,921,920,921,922,923,924,923,923,924,927,929,927,925,922,922,921,921,920,920,918,916,914,913,914,914,914,912,912,913,915,915,914,914,912,910,907,906,906,907,906,906,907,911,913,914,910,907,906,907,908,907,908,908,909,910,915,920,921,916,905,893,876,859,848,843,844,844,843,838,836,832,831,829,828,829,832,836,839,842,846,849,849,846,841,834,824,817,813,812,802,786,774,771,770,767,762,758,750,742,736,732,732,733,735,735,734,733,732,732,732,731,731,731,732,733,734,736,739,746,754,759,761,760,759,757,759,759,759,760,759,759,759,760,760,759,759,758,759,756,757,760,777,836,897,924,936,942,944,945,947,945,946,948,950,947,947,949,952,951,946,943,944,946,947,948,948,948,0
0,874,873,874,872,874,875,874,873,873,872,869,864,856,845,818,802,734,704,693,688,685,683,682,683,686,689,688,689,690,689,690,692,695,693,690,689,691,692,695,690,689,688,690,690,692,692,692,692,691,691,690,691,692,693,694,692,690,689,686,684,680,677,673,668,667,667,669,671,673,671,671,674,682,693,705,716,722,721,721,723,729,734,740,748,758,766,774,781,785,784,780,775,773,773,774,775,774,774,777,784,794,801,803,804,808,817,828,839,843,845,849,852,850,845,842,843,844,845,846,848,850,853,856,859,863,867,873,878,882,883,886,889,893,894,895,896,898,893,891,885,885,884,885,886,889,890,891,892,892,891,889,890,891,892,891,890,890,890,890,892,891,893,894,896,896,897,897,898,899,898,898,897,899,898,899,900,901,901,900,898,898,900,904,905,902,901,901,903,903,903,903,904,906,905,904,904,904,908,906,901,897,898,899,903,904,906,906,907,908,908,908,908,908,907,907,909,909,909,910,908,907,903,903,901,901,902,901,901,898,899,897,899,899,902,903,903,904,906,910,907,908,908,911,911,910,908,908,909,910,911,913,914,912,910,912,914,913,913,915,917,916,913,912,912,913,914,913,913,912,912,911,913,911,911,910,912,912,913,913,913,913,914,916,913,911,911,914,917,918,918,916,915,915,919,923,925,923,920,919,919,917,918,919,922,922,922,923,925,925,926,927,924,920,917,919,920,921,920,921,923,923,923,923,924,925,925,924,923,922,922,921,921,919,919,918,918,917,917,920,921,922,921,921,922,922,922,923,923,923,923,923,923,925,927,928,926,923,921,920,919,919,919,917,915,913,913,913,912,912,910,911,912,913,912,911,911,910,908,906,906,906,906,905,904,904,908,910,911,909,906,905,905,906,906,907,907,910,913,918,920,917,909,897,883,867,855,846,842,841,840,840,838,838,836,835,833,833,835,839,844,847,848,848,849,849,847,841,831,820,814,813,812,805,791,777,772,769,768,763,759,751,743,738,733,732,730,731,731,731,729,728,727,727,728,728,729,730,730,731,733,737,745,754,758,760,759,760,759,760,760,759,760,759,758,759,761,762,761,761,760,760,758,758,762,783,852,905,925,933,937,941,945,946,944,944,948,948,947,945,948,949,949,947,945,946,947,948,948,951,951,0
0,874,878,879,874,871,875,873,872,870,872,870,863,859,852,840,801,768,725,700,691,687,685,684,684,682,686,687,692,691,691,690,691,694,694,692,692,694,694,695,690,690,690,692,692,692,692,692,693,693,693,692,692,693,695,693,693,691,690,685,683,682,684,679,674,669,666,666,668,670,669,670,674,683,695,707,717,720,722,723,727,731,738,744,752,761,771,778,784,787,786,780,776,773,773,773,774,774,776,782,792,799,803,803,806,812,820,830,837,842,845,848,850,847,843,839,841,841,844,846,848,849,851,855,859,863,867,874,878,883,883,886,889,893,894,895,895,896,893,891,886,883,882,884,887,890,890,889,889,890,890,889,890,890,891,891,891,892,892,892,893,892,893,894,895,895,895,895,896,897,897,897,897,898,899,899,900,900,901,901,900,900,902,905,904,900,899,900,903,902,901,902,904,905,904,902,902,904,908,906,901,898,898,900,903,905,907,906,905,906,906,908,908,909,908,907,907,907,908,910,907,906,903,902,897,896,897,900,901,898,898,897,898,898,902,902,899,898,900,907,909,909,907,906,905,906,905,906,908,910,910,912,914,913,910,911,913,912,911,912,914,913,911,910,911,911,912,912,913,911,911,911,913,911,909,908,909,911,913,914,913,912,911,912,910,910,910,913,915,916,916,916,914,913,915,920,924,923,922,919,919,917,916,916,918,921,923,923,925,926,927,928,926,921,917,917,917,918,918,920,923,923,923,923,924,925,926,925,924,923,923,923,922,920,922,921,921,918,917,919,921,922,921,921,922,921,922,922,923,923,922,922,921,923,924,927,926,924,921,920,920,919,919,916,914,912,912,912,910,910,910,911,913,913,911,910,909,910,908,906,905,906,906,904,904,903,906,908,910,908,905,904,904,905,904,906,908,913,917,921,919,912,902,890,876,863,853,847,842,840,839,839,837,837,839,840,840,840,842,844,848,850,851,852,851,851,847,839,829,819,815,814,812,805,793,780,774,770,769,764,761,754,746,740,734,731,729,729,729,729,728,728,727,726,726,726,728,730,731,731,732,737,746,754,759,761,760,759,760,761,760,759,760,760,759,760,760,760,760,760,760,759,759,759,764,788,864,910,928,932,938,941,944,943,942,944,950,951,949,947,947,947,948,948,947,948,948,947,946,952,955,0
0,873,877,878,872,871,872,872,870,870,871,871,868,866,862,850,809,769,737,701,691,689,688,685,684,680,682,683,688,688,689,689,690,692,691,690,689,691,694,695,692,692,692,694,693,694,693,694,693,694,694,693,693,694,695,693,691,690,687,683,679,680,683,685,680,673,667,665,666,667,669,672,677,687,698,708,714,717,722,725,730,735,742,748,756,768,777,782,787,788,789,782,778,772,771,771,772,774,780,788,798,800,803,805,810,817,825,834,838,842,847,848,847,842,839,838,839,840,845,848,849,849,850,854,858,863,868,875,877,880,882,886,891,893,894,894,896,896,894,891,886,882,882,885,889,891,890,889,889,889,889,888,889,888,890,889,891,892,893,893,892,890,890,893,893,893,893,894,895,896,896,896,897,898,899,899,900,900,900,899,898,900,900,902,900,897,897,898,901,901,900,901,903,904,903,902,902,904,907,906,901,899,901,904,906,907,907,905,904,905,906,907,906,905,905,906,905,906,907,908,903,898,897,897,895,894,896,899,900,898,898,899,898,897,901,905,903,899,900,906,910,908,905,903,902,904,904,905,907,909,910,910,913,911,910,910,912,910,909,910,913,913,911,910,910,909,911,910,911,908,906,908,910,910,908,906,906,907,911,913,912,910,909,911,911,911,910,911,912,913,914,915,915,913,914,918,922,923,923,921,919,917,916,915,917,919,922,923,924,926,928,929,928,923,918,915,915,916,916,918,920,920,920,921,923,924,926,926,924,923,924,924,924,921,922,921,922,920,920,920,921,920,920,920,920,920,920,921,922,922,921,920,919,920,922,926,925,924,921,919,919,918,919,916,914,912,911,910,909,908,908,909,910,910,909,907,907,907,908,906,906,904,904,901,901,901,902,905,906,906,903,901,901,901,902,906,912,917,919,920,915,906,894,882,869,858,851,847,845,842,841,840,839,839,842,843,846,846,847,848,851,853,854,853,851,849,843,835,827,819,816,812,808,799,791,781,775,772,771,766,763,757,752,744,737,732,729,729,728,728,727,727,727,725,725,726,728,729,729,729,730,737,747,755,759,760,759,759,760,761,760,760,761,761,761,761,760,760,761,761,760,760,760,758,766,793,867,912,928,932,940,944,945,943,945,946,950,949,950,948,946,943,946,948,951,950,949,945,945,948,953,0
0,872,875,876,872,869,869,871,872,872,870,869,870,871,865,846,812,769,724,697,689,688,688,686,685,681,681,682,686,690,689,691,690,690,691,689,690,692,694,695,692,693,695,695,694,693,694,695,696,697,697,696,695,695,695,693,691,690,687,684,681,681,682,684,684,681,673,669,667,668,669,673,678,688,699,707,711,714,721,725,731,737,745,753,765,778,783,786,789,791,790,783,778,772,772,772,774,778,785,792,798,799,801,805,811,819,827,835,840,843,846,844,841,837,836,837,838,840,843,847,847,847,848,853,858,864,868,874,877,880,882,886,890,891,893,894,897,896,894,889,885,881,881,884,888,890,890,887,887,887,889,889,890,889,889,890,890,890,890,891,891,890,890,892,893,893,893,894,895,896,896,897,898,899,899,900,900,900,900,900,900,900,900,900,899,896,896,898,899,900,899,901,902,902,902,903,904,906,907,906,904,903,904,906,907,906,905,903,904,905,906,907,905,905,905,906,906,906,905,903,897,890,890,891,892,890,889,892,895,898,898,897,895,896,900,906,906,901,902,906,909,906,904,903,902,902,902,904,907,909,910,911,913,911,909,908,909,908,909,910,914,913,912,912,911,910,910,908,908,907,906,906,907,910,908,905,903,904,908,912,911,908,907,908,910,912,909,908,908,908,911,912,914,913,913,915,918,921,922,922,920,919,917,916,916,919,922,924,926,929,929,928,929,927,921,917,916,916,918,919,920,918,918,919,920,923,924,924,923,923,923,924,923,923,923,924,924,923,922,921,920,920,919,920,920,920,920,920,921,922,920,919,918,919,921,924,925,924,921,918,917,915,916,915,913,912,911,911,910,909,908,909,910,909,909,908,908,907,908,907,904,902,901,901,900,900,900,902,904,905,903,901,900,900,903,909,918,922,921,918,910,899,887,876,865,856,851,848,847,845,845,843,843,842,844,848,850,852,851,853,854,854,854,853,851,846,839,830,824,818,815,807,799,790,785,781,776,772,770,768,769,766,761,749,740,733,730,730,729,727,727,728,726,725,725,725,727,728,728,728,732,741,751,757,760,760,759,759,760,761,759,759,760,760,760,759,762,760,761,759,760,758,760,759,770,801,876,917,933,938,942,941,939,940,944,947,948,949,949,950,947,946,948,950,951,950,948,944,943,947,950,0
0,871,872,871,870,869,869,872,873,872,869,868,872,872,863,845,798,732,717,699,690,687,687,686,687,683,682,684,687,691,690,691,690,691,691,690,691,692,694,694,693,693,695,695,695,694,696,697,698,698,698,697,696,697,696,694,690,689,685,684,682,681,681,683,684,683,681,675,671,669,669,672,677,688,699,706,708,710,717,725,734,741,750,762,776,787,788,790,792,794,792,786,780,775,774,773,776,780,788,794,799,801,804,807,812,818,826,834,841,842,842,839,835,832,833,835,836,840,843,846,846,846,848,853,859,865,870,874,877,880,882,886,890,891,892,894,896,894,893,889,884,881,881,884,887,888,888,887,886,887,889,890,890,890,890,891,890,890,890,889,888,888,889,891,892,892,893,894,896,896,895,895,896,898,899,899,899,899,898,898,898,898,899,898,898,896,897,898,899,900,901,901,901,900,901,903,905,906,906,905,904,902,904,905,906,905,902,900,902,905,907,905,905,903,902,904,903,902,899,897,895,889,889,890,893,0,891,0,893,894,894,894,896,894,897,900,905,906,907,909,906,902,901,902,902,901,901,902,905,906,910,911,912,908,906,905,907,907,909,909,911,912,912,912,911,908,909,905,904,903,903,905,906,908,907,904,902,902,905,910,910,908,908,909,912,913,909,908,908,908,910,911,913,913,913,914,915,918,921,921,921,919,918,917,917,918,919,922,925,928,927,927,927,927,923,919,917,917,918,919,919,918,917,918,918,921,921,923,921,921,921,922,923,922,923,922,923,922,922,921,919,918,918,918,919,919,919,919,920,921,919,918,918,918,920,922,923,922,919,917,916,914,913,912,911,910,910,912,911,909,907,907,907,907,907,906,906,905,908,906,903,900,901,901,900,899,899,900,901,904,903,901,899,898,904,911,919,920,918,913,904,892,882,871,862,853,849,847,847,846,847,847,847,848,849,851,852,855,856,857,858,856,854,851,847,840,833,826,822,816,810,800,791,784,781,780,777,774,771,770,771,773,770,758,745,735,730,729,728,727,726,725,725,724,724,724,724,724,724,726,731,743,754,760,761,761,761,761,761,761,761,764,763,761,759,760,763,762,762,760,761,759,760,760,773,812,885,920,933,938,938,938,937,939,943,944,943,944,947,948,946,944,947,946,949,948,948,943,943,948,952,0
0,874,872,869,867,869,870,870,869,869,868,869,868,868,861,845,814,763,733,720,699,690,687,687,689,686,687,689,692,695,693,692,689,691,694,694,696,694,694,692,693,694,696,696,696,696,696,696,698,698,699,698,698,697,695,692,689,687,684,684,684,685,684,683,684,684,684,684,679,675,671,671,677,688,700,706,708,709,716,725,737,745,757,772,784,789,788,790,793,795,794,788,783,778,777,777,780,784,791,796,800,803,806,809,813,818,824,833,838,838,836,833,831,830,832,834,836,838,841,843,844,846,851,855,861,865,871,875,878,881,882,886,888,889,891,895,895,893,891,890,886,882,880,882,886,887,886,884,885,886,888,890,890,891,890,891,890,891,890,889,888,888,890,891,892,892,893,894,895,896,894,894,895,897,898,898,897,896,896,898,898,898,898,899,899,897,897,897,899,898,899,900,901,900,899,900,903,904,905,904,903,901,902,903,904,902,899,898,900,903,905,905,904,900,899,897,897,896,896,895,893,890,889,890,890,890,889,892,893,893,0,893,896,896,896,897,900,904,908,908,904,901,901,901,901,899,900,899,902,904,908,911,912,908,906,905,907,908,910,910,911,911,913,914,913,911,910,906,904,903,905,905,905,907,908,905,903,903,905,908,907,907,906,908,910,912,909,909,908,909,909,910,911,911,911,912,914,916,918,920,921,920,918,918,916,916,917,921,924,925,924,924,925,926,925,923,920,918,918,920,921,920,918,918,917,920,920,922,922,922,922,922,922,921,921,922,922,921,921,921,919,918,917,918,918,918,918,919,920,921,919,919,918,919,920,922,923,922,921,919,917,912,910,909,909,909,909,911,910,909,908,908,907,906,905,906,907,908,910,908,905,903,903,903,901,900,900,900,900,901,902,900,898,899,905,912,917,917,915,910,900,887,877,868,862,853,850,847,848,847,849,850,851,852,852,855,856,858,858,860,859,855,853,850,844,835,831,825,822,813,804,793,786,780,780,779,779,777,773,773,776,782,779,768,752,739,731,728,727,726,725,724,724,723,723,721,721,723,725,727,734,747,757,762,762,762,760,760,760,764,775,786,780,767,761,760,762,762,762,760,763,761,762,761,776,825,894,925,933,935,934,935,936,939,942,943,943,946,950,949,946,943,948,947,949,947,948,945,947,951,952,0
0,873,869,869,864,868,868,869,867,868,869,871,866,864,856,850,822,793,754,731,706,691,691,691,694,692,691,691,692,694,693,692,691,694,696,697,697,696,694,694,694,696,696,697,697,697,697,696,698,697,699,698,699,700,698,694,690,688,684,684,685,685,685,684,684,684,684,685,684,681,675,673,676,687,700,708,710,713,720,730,743,754,769,781,789,790,789,790,793,795,795,789,785,780,780,779,783,786,793,799,804,806,808,812,813,816,822,830,834,833,831,829,829,830,831,832,834,836,840,841,843,846,853,858,864,867,872,875,878,880,883,887,888,890,891,894,894,892,891,890,887,883,881,882,886,886,886,883,883,885,886,889,888,890,890,891,890,891,891,889,887,888,890,892,892,892,892,895,896,896,894,893,894,895,897,897,896,894,894,895,896,897,897,897,898,897,897,898,899,900,899,899,900,900,900,901,902,903,903,901,900,900,900,901,901,901,898,896,897,901,902,900,898,897,895,892,891,892,894,894,893,893,893,894,0,893,894,895,895,892,892,894,899,898,896,894,896,901,908,905,902,900,902,901,901,900,900,898,900,901,906,909,911,909,908,908,910,910,909,909,910,911,912,914,912,910,909,906,904,902,903,904,906,907,909,908,906,905,904,906,904,904,904,907,908,910,908,909,909,909,909,909,910,909,910,910,908,909,911,917,918,916,916,915,915,915,915,919,920,920,920,921,923,923,923,923,921,918,917,919,920,919,916,916,916,918,919,921,922,921,922,922,922,920,921,921,920,919,919,920,920,919,918,917,917,918,918,918,919,921,919,918,917,918,920,921,921,920,921,920,918,913,910,907,907,906,907,907,908,907,907,907,906,904,904,904,905,907,909,908,906,905,905,903,901,899,898,897,897,898,899,899,898,899,906,910,914,914,912,905,896,884,874,866,861,854,850,846,847,848,851,853,854,856,857,858,859,860,861,860,859,855,850,846,840,833,830,825,820,808,797,786,780,778,778,778,779,782,780,779,778,783,782,776,762,747,735,728,726,725,723,722,722,722,722,721,722,723,724,728,737,750,759,762,762,762,762,762,762,774,811,848,833,798,765,761,760,761,762,763,766,763,763,762,779,833,897,927,934,938,938,940,942,942,944,943,944,947,951,949,946,942,947,947,951,948,946,943,948,949,950,0
0,871,868,872,870,873,870,867,867,868,867,867,863,864,858,848,840,820,773,745,709,694,693,691,695,696,698,696,695,695,695,695,695,698,699,699,696,695,694,696,697,700,701,701,699,699,699,697,698,697,698,697,698,698,698,695,690,687,684,684,685,685,685,684,684,684,684,684,684,683,680,677,679,685,696,707,714,720,727,736,749,764,779,788,789,789,788,790,792,795,795,790,786,782,782,782,786,788,795,802,808,810,811,811,811,815,823,829,831,829,827,826,828,830,831,831,832,834,837,838,841,846,854,861,866,869,872,875,878,881,883,885,888,890,892,895,894,891,890,889,887,883,882,883,885,885,884,882,882,884,885,887,887,890,890,891,890,891,890,889,889,890,892,892,893,893,894,895,896,896,894,893,893,895,897,897,896,894,894,895,896,897,897,897,898,897,896,897,899,899,898,898,897,898,898,899,900,902,902,900,899,899,900,899,898,898,896,895,896,900,900,897,893,892,890,888,888,891,895,894,892,893,893,894,892,892,894,897,897,895,896,898,901,902,900,898,900,902,906,901,899,901,903,903,901,900,900,899,901,901,905,908,911,910,909,910,910,908,909,910,913,913,914,914,912,911,909,908,905,903,904,905,906,907,909,911,909,908,906,905,903,903,904,906,906,906,907,908,908,907,907,909,911,911,910,910,908,908,910,914,915,913,913,914,915,914,914,917,918,918,918,920,922,922,922,922,921,919,917,918,919,918,915,914,913,914,915,918,920,921,921,921,920,920,920,921,921,919,919,919,920,920,919,918,918,918,917,916,917,919,919,918,917,918,920,921,923,922,922,920,916,912,909,906,907,906,907,907,907,906,905,905,905,905,905,905,906,908,908,908,906,905,904,901,899,897,897,896,895,894,896,898,900,903,907,910,912,912,909,901,891,882,873,865,860,855,853,850,850,851,854,856,857,858,858,861,864,864,863,860,857,853,847,843,838,833,828,823,815,804,793,784,779,778,779,779,780,784,787,788,784,785,782,780,772,759,744,733,726,724,722,721,721,722,721,721,723,723,724,728,740,753,759,761,762,763,761,761,765,790,856,882,870,828,768,760,758,760,764,765,768,765,764,765,782,841,903,929,937,940,940,942,944,946,946,947,948,949,949,949,948,948,948,948,947,943,943,944,950,947,944,0
0,873,870,873,870,869,867,866,870,872,870,868,864,865,861,854,843,815,768,737,718,695,693,692,695,698,699,698,695,695,696,698,699,699,698,699,695,695,694,698,698,700,700,700,699,699,701,699,700,698,699,697,698,699,699,695,690,689,686,686,686,684,684,683,684,684,683,682,681,682,682,675,674,677,691,707,718,728,736,746,758,773,784,788,788,788,790,791,794,797,797,793,788,784,783,783,787,790,797,805,810,812,810,809,809,814,822,826,826,824,823,823,825,829,831,834,834,836,837,838,842,848,855,862,866,869,872,875,877,878,880,884,888,891,893,893,892,890,889,888,886,883,883,883,885,885,884,883,882,883,884,887,887,889,889,890,891,890,890,888,889,891,892,892,891,892,893,895,895,895,894,892,892,894,896,897,896,895,894,894,896,897,898,897,896,895,895,896,898,899,898,897,896,896,897,900,901,902,902,900,898,896,897,895,896,897,896,896,896,899,898,894,890,891,891,891,891,892,894,894,894,895,894,895,896,898,899,899,897,897,898,902,903,901,900,900,903,904,904,898,896,897,901,904,903,901,900,899,901,900,902,906,910,908,908,909,908,906,907,908,911,911,912,912,912,911,910,909,907,905,906,905,906,906,908,910,909,908,906,906,906,905,906,907,907,905,904,906,906,905,905,909,912,912,911,910,906,904,904,906,911,910,909,909,911,913,913,914,917,917,919,919,922,922,922,922,922,920,918,917,917,916,914,912,912,912,914,916,918,919,919,918,918,918,919,919,920,919,918,917,917,917,917,917,918,917,917,915,916,916,916,915,916,917,919,920,921,920,919,917,914,911,909,907,906,906,906,906,906,905,904,905,905,905,905,905,905,905,905,906,906,904,902,898,897,895,895,893,892,891,893,897,901,904,907,910,913,912,907,897,887,879,872,864,858,855,855,852,852,854,857,859,858,859,861,864,868,865,862,858,855,849,842,840,837,831,821,811,805,799,792,784,778,777,779,783,786,789,792,793,789,787,784,783,777,767,751,737,726,723,722,721,720,720,720,722,723,722,722,727,739,752,758,761,763,764,762,762,768,812,869,891,876,823,765,760,758,760,764,767,769,765,763,765,785,848,904,927,938,942,943,942,943,941,942,944,944,945,942,946,947,949,947,945,945,943,944,944,945,945,946,0
0,874,870,870,866,867,869,867,869,868,869,866,864,863,864,858,848,815,757,730,718,699,694,693,695,697,698,698,699,699,699,697,697,697,698,698,696,695,694,698,699,701,701,701,700,699,701,701,701,699,697,696,696,698,695,693,688,687,685,685,684,684,684,684,683,680,679,679,679,679,676,672,672,675,687,704,721,734,744,756,767,778,786,787,786,786,789,792,795,799,800,797,792,788,785,787,790,793,798,805,810,811,808,806,808,816,821,823,822,821,820,820,821,824,828,834,837,838,838,839,844,851,857,862,865,868,872,877,879,881,880,882,885,889,891,891,888,887,888,888,886,884,883,884,885,886,884,883,882,883,883,885,886,888,888,890,892,891,890,890,891,893,893,892,890,890,891,892,892,893,893,892,892,894,897,898,896,894,892,893,894,897,898,898,897,896,895,897,898,899,898,897,896,896,897,899,899,900,902,901,899,897,897,896,896,897,897,897,897,895,894,892,890,890,890,892,892,893,893,895,896,896,894,893,894,897,900,900,897,897,899,904,901,900,899,904,907,907,902,898,896,898,901,904,903,902,901,901,901,899,901,904,909,908,907,906,905,904,906,909,910,909,909,910,912,913,913,911,909,907,907,907,908,907,907,908,907,907,907,909,910,908,908,907,908,905,906,908,910,908,906,909,910,913,911,911,909,904,902,902,908,911,908,909,909,912,912,912,914,916,919,919,920,920,921,921,923,922,920,918,916,915,913,912,911,912,913,916,917,919,918,918,917,917,918,918,918,918,917,916,916,916,916,917,916,915,915,916,916,915,915,915,916,917,919,919,919,919,919,918,916,911,909,907,908,907,907,906,904,903,902,904,905,905,904,905,905,906,906,908,907,904,900,897,896,895,894,893,891,891,892,897,900,904,906,909,913,911,904,893,884,878,873,865,858,855,855,856,857,860,862,862,860,861,864,868,869,864,861,858,854,846,841,839,836,825,811,801,797,798,794,787,781,781,785,790,794,794,795,795,794,792,789,785,778,770,755,739,726,723,723,721,720,719,720,721,722,721,721,724,736,751,758,761,763,764,762,761,766,804,858,877,853,782,762,759,759,762,765,766,767,765,763,769,792,861,909,928,936,940,939,939,939,939,940,942,943,941,939,944,949,952,948,941,938,939,944,943,944,945,948,0
0,872,869,867,861,862,866,868,871,870,870,868,865,862,864,864,858,829,767,731,727,705,697,694,695,694,695,696,701,701,699,696,696,695,697,699,699,697,695,698,698,699,700,700,701,699,701,702,703,701,699,698,698,698,693,689,685,685,684,683,683,683,684,683,681,679,678,677,677,677,674,670,670,673,685,704,725,743,755,768,776,780,785,785,786,787,790,793,797,801,803,801,797,793,789,788,790,794,800,806,810,809,804,805,808,815,818,818,818,818,817,816,816,819,824,831,836,838,839,842,847,855,859,862,864,868,872,876,879,880,880,883,884,888,890,889,885,884,886,889,889,886,884,882,884,885,885,884,882,882,883,884,886,886,887,889,891,890,890,889,890,891,891,891,889,888,888,890,890,891,892,892,892,893,896,897,896,894,893,892,893,896,898,898,895,894,895,896,896,896,897,897,898,897,897,898,897,898,899,898,896,895,895,896,898,900,899,895,891,888,888,890,891,892,893,898,896,895,893,895,898,896,895,894,895,897,900,900,898,897,899,902,900,898,898,902,905,905,902,899,898,900,902,904,904,904,902,900,899,897,897,900,905,906,906,905,904,903,904,906,907,906,905,906,910,913,914,913,911,909,909,908,909,908,907,907,906,908,908,911,911,910,907,907,908,908,907,908,911,910,907,907,907,911,911,910,908,902,900,900,907,911,908,905,906,909,911,910,911,912,915,917,918,918,918,918,921,921,920,918,917,915,913,911,912,913,915,917,917,917,917,917,917,917,917,917,915,916,915,915,914,913,914,915,915,914,914,915,917,916,915,914,916,918,918,917,916,916,917,918,917,913,910,908,908,907,907,905,902,901,902,904,904,904,904,904,905,906,907,910,910,905,899,895,895,894,892,891,889,890,890,895,899,903,905,909,913,910,900,890,881,875,870,865,860,857,856,858,861,864,865,863,862,864,868,871,869,862,858,855,852,846,842,837,830,816,804,796,794,796,794,788,782,784,792,798,800,797,795,795,798,798,793,785,773,763,750,734,725,721,724,722,720,720,720,721,721,721,720,722,731,747,760,763,763,762,762,762,765,780,814,820,790,766,762,761,763,766,767,766,765,766,765,774,805,875,913,930,937,940,941,939,937,935,936,940,942,940,940,943,947,949,948,944,941,941,942,942,942,946,948,0
0,868,866,866,862,865,869,871,872,869,872,872,868,864,862,863,859,841,790,753,745,717,700,694,693,693,695,696,702,702,699,695,695,697,700,701,701,698,696,698,699,701,702,703,703,700,700,701,703,701,699,697,697,696,692,687,683,683,681,681,681,682,682,678,677,674,675,675,675,673,671,671,672,676,684,704,729,751,764,777,783,784,786,786,788,788,791,794,798,801,802,802,802,800,796,794,792,796,802,807,809,808,804,805,810,816,817,815,816,816,816,816,815,816,818,825,831,834,835,842,850,857,860,862,864,868,872,876,879,882,882,884,882,885,886,886,883,882,886,890,892,889,886,883,883,883,885,884,883,883,883,884,884,884,885,887,888,888,888,889,891,892,892,891,890,889,889,889,890,891,892,892,892,894,897,897,895,892,892,891,892,894,896,896,894,894,895,896,896,894,895,896,898,898,898,898,897,898,899,899,897,896,895,897,897,899,896,893,887,884,885,888,893,893,894,895,894,893,893,895,896,897,896,896,898,899,900,898,897,897,899,901,900,899,900,903,905,903,900,900,901,902,903,904,904,905,904,904,901,898,897,901,904,906,905,906,905,904,904,906,907,907,905,904,908,913,914,913,912,909,909,909,911,909,906,906,907,910,910,911,911,911,909,908,907,908,909,910,914,914,911,908,908,911,911,912,910,904,902,902,908,911,908,905,906,909,911,908,908,908,912,914,915,916,916,916,918,919,921,919,918,915,914,912,913,913,915,916,915,916,915,918,918,918,918,918,916,917,916,915,914,914,914,914,914,914,913,914,917,917,916,915,916,917,916,915,914,916,918,920,919,914,910,908,907,906,906,904,901,900,902,904,905,904,904,905,907,908,909,911,908,903,898,895,894,892,891,890,889,890,890,894,897,903,905,910,912,905,893,884,878,874,869,866,862,860,860,864,867,869,867,866,868,870,873,873,868,861,856,854,852,846,840,829,817,807,801,798,797,798,796,791,789,794,802,804,802,797,795,797,802,802,793,779,765,754,746,734,727,723,724,722,720,720,719,720,719,720,720,722,728,744,757,762,762,762,762,764,765,768,774,775,768,762,762,762,766,769,769,768,766,766,768,782,826,888,919,931,936,937,938,938,938,938,937,940,940,941,942,946,949,950,945,943,938,937,938,940,944,945,947,0
0,865,865,867,867,869,871,874,872,871,870,872,870,870,867,864,860,848,815,777,756,716,699,694,693,694,696,698,701,702,699,698,696,699,700,703,701,698,696,698,699,701,703,703,704,701,701,700,704,702,701,697,697,694,690,685,682,681,681,681,681,680,678,675,675,673,675,675,674,672,672,673,675,677,685,705,734,756,769,782,787,787,788,788,790,790,792,795,798,801,802,804,806,806,805,802,800,802,806,809,808,804,802,804,811,815,815,813,814,815,816,817,816,816,817,824,829,832,831,838,849,857,860,861,864,868,873,876,877,879,882,884,883,883,884,884,882,881,883,887,890,891,888,884,882,881,883,883,883,882,883,882,881,881,883,885,887,886,887,887,890,890,891,891,890,890,890,891,891,891,891,890,891,894,896,895,893,893,892,892,890,891,893,894,893,893,894,894,893,893,894,896,897,897,897,898,897,898,899,897,895,894,893,894,895,896,892,889,886,885,886,890,892,891,893,894,893,892,891,892,893,896,895,897,898,899,898,898,897,898,898,900,900,899,900,903,904,900,899,898,898,899,903,905,903,903,903,904,901,899,897,900,903,906,905,906,905,904,904,905,906,906,905,904,906,909,911,912,911,910,910,910,909,906,905,906,907,909,909,910,911,911,911,909,908,909,910,910,913,914,913,911,910,910,911,911,911,907,905,904,909,909,908,905,906,908,910,906,905,906,909,912,914,916,915,914,915,917,919,919,919,916,916,913,915,913,915,915,915,915,915,916,917,918,917,918,918,919,918,916,915,914,913,913,914,913,911,911,915,917,917,915,916,916,914,912,913,915,917,919,918,914,909,906,905,905,904,903,902,902,902,902,902,901,903,905,909,910,910,908,904,899,896,894,892,891,890,890,889,889,886,890,895,902,905,909,908,900,888,882,877,873,868,866,865,866,865,867,870,871,869,869,872,875,876,873,867,861,855,852,848,841,832,820,809,802,800,802,803,802,800,797,799,804,809,805,801,797,799,802,806,802,787,767,754,746,742,734,728,724,723,721,720,720,718,718,718,719,720,721,725,739,754,762,763,763,761,761,761,763,764,765,764,764,764,768,769,771,770,770,768,766,770,788,845,899,923,932,934,935,938,938,938,939,941,943,941,940,941,945,945,943,942,941,942,939,940,941,944,945,947,0
0,862,865,866,868,869,871,871,868,869,870,872,872,871,867,862,859,855,828,784,741,714,697,695,695,696,698,697,699,700,701,703,701,702,702,702,702,700,697,697,698,700,702,704,704,702,702,701,703,702,702,698,698,693,688,685,683,682,678,676,676,675,674,673,673,671,672,671,670,669,671,675,680,682,691,708,736,756,771,783,787,788,789,790,792,791,792,795,799,802,803,805,807,809,809,808,807,808,809,808,805,801,800,802,808,811,811,811,814,817,819,820,819,819,817,824,830,836,833,839,849,856,859,861,865,869,874,876,877,878,881,884,884,881,882,882,883,881,883,884,887,892,891,887,882,880,881,880,881,880,881,881,880,880,882,884,885,885,886,888,890,891,892,892,890,890,890,892,892,892,891,890,892,895,896,895,892,893,892,892,890,891,892,893,894,894,894,893,893,893,894,894,896,897,897,898,898,899,900,898,895,893,892,892,893,893,890,889,887,888,888,891,891,891,892,893,892,889,890,892,893,895,895,897,897,899,899,898,896,897,898,900,899,899,901,903,902,899,898,896,895,896,901,904,903,902,902,904,902,901,899,901,903,906,907,907,906,907,906,907,907,907,905,905,906,908,908,908,909,910,910,910,910,909,908,909,910,909,908,909,909,910,911,910,909,909,910,911,914,916,916,914,913,913,912,913,913,911,909,908,911,910,909,908,908,909,908,906,904,904,907,912,915,917,917,916,915,916,918,919,919,916,916,914,915,914,915,914,914,914,915,916,916,917,917,917,918,919,918,918,917,917,914,913,913,914,913,911,913,915,916,915,915,915,914,913,912,915,916,918,916,913,909,907,905,904,904,905,907,906,904,902,901,900,902,906,910,911,909,904,899,895,894,894,893,892,890,891,889,888,885,888,893,900,907,908,906,897,887,880,876,872,870,867,868,868,869,870,872,873,0,872,876,878,876,870,863,859,853,848,841,834,824,813,804,800,803,809,810,805,802,802,807,811,812,805,801,799,802,806,809,799,778,758,747,743,742,738,733,728,723,719,718,718,718,717,718,719,721,721,724,735,749,759,761,763,761,761,760,762,762,762,764,766,765,767,768,770,770,770,769,766,772,795,865,910,928,931,934,934,938,939,940,940,941,941,941,940,940,942,945,944,944,943,945,943,944,941,944,945,947,0
0,863,865,867,870,872,870,868,866,867,866,867,870,869,867,861,862,857,836,786,743,709,694,692,694,696,698,698,699,699,701,704,704,703,701,703,704,703,700,698,699,700,702,702,704,704,703,703,703,705,706,702,699,693,687,683,680,677,673,672,672,672,672,673,673,672,670,669,670,671,676,682,685,687,696,713,739,756,770,782,787,787,789,791,793,792,793,795,799,802,805,806,806,807,809,808,810,810,811,807,802,797,796,799,804,805,805,806,810,814,817,820,819,817,816,822,831,839,838,842,847,854,858,861,865,868,873,875,876,877,880,883,883,881,880,882,883,882,882,882,885,890,892,888,882,879,879,879,881,881,881,880,879,880,882,883,884,885,886,888,888,890,890,889,887,887,888,890,891,893,892,890,891,894,895,895,892,892,891,892,890,891,892,894,895,894,893,892,892,892,894,894,896,896,896,896,896,898,900,898,895,892,892,891,891,890,890,889,890,892,893,891,890,891,891,892,891,890,890,892,893,895,895,896,896,898,898,898,897,897,898,899,897,897,900,901,901,899,900,898,895,897,900,904,902,902,901,904,904,904,902,902,903,904,907,906,904,904,905,908,907,905,904,903,903,904,904,905,906,908,909,910,911,911,910,911,910,910,908,908,907,907,908,909,908,909,909,910,913,914,915,913,913,913,912,912,912,912,912,911,912,911,912,911,911,908,906,906,904,905,905,910,913,916,916,915,913,914,914,916,917,916,914,913,913,912,913,912,914,913,916,915,915,915,915,917,916,917,917,916,917,916,915,913,913,913,913,912,913,914,914,914,915,914,913,913,912,913,914,916,916,914,910,907,905,904,905,907,909,908,904,901,899,899,901,906,910,910,906,900,895,893,893,894,893,892,890,890,889,888,885,886,891,897,905,905,901,893,886,880,876,873,871,869,870,872,873,872,873,873,872,873,877,879,874,866,858,854,847,839,832,827,820,811,804,801,807,814,816,808,803,803,810,814,814,806,803,802,808,811,807,790,769,752,744,743,742,739,733,727,722,718,717,717,718,718,719,719,721,720,723,732,747,757,761,764,763,762,759,762,763,763,765,767,768,769,771,771,772,772,771,768,778,810,878,917,930,932,935,937,941,941,940,941,943,942,944,940,942,941,943,944,946,946,948,946,944,942,942,942,941,0
0,863,865,869,870,870,866,866,867,868,867,866,867,863,863,863,865,862,848,804,765,727,698,692,694,695,699,700,701,700,702,706,706,703,701,702,704,705,703,701,702,702,703,703,703,704,704,705,704,706,706,706,701,694,684,679,675,672,669,669,670,670,670,672,672,670,670,670,672,675,681,685,689,693,704,722,741,756,770,780,786,786,788,791,794,794,795,797,800,803,806,805,806,805,806,806,809,809,809,804,799,794,793,797,801,803,802,802,804,808,814,820,821,820,819,823,831,841,845,847,850,854,858,862,865,867,871,873,875,878,880,883,882,880,879,882,885,885,885,884,886,889,893,890,885,880,879,879,881,882,882,882,881,882,883,883,883,884,885,886,887,889,888,888,886,888,887,890,890,892,890,890,891,893,896,896,894,892,892,893,892,892,892,894,894,893,892,891,892,892,892,892,894,893,895,896,897,898,899,898,895,894,894,893,891,890,891,891,893,893,893,892,892,894,894,894,891,892,892,894,895,896,897,897,897,898,899,897,897,897,899,898,898,898,901,901,901,900,901,900,899,899,901,905,904,903,901,902,903,905,905,904,904,904,906,906,904,904,905,907,907,906,904,904,903,904,904,904,906,907,908,909,912,912,912,912,910,910,908,908,906,905,905,906,907,907,906,907,911,914,914,913,912,913,913,913,912,913,913,913,913,911,912,913,912,910,908,909,906,903,902,905,911,914,916,915,914,913,914,916,916,915,914,912,911,910,911,911,912,912,914,914,913,913,915,917,916,916,916,916,915,915,915,914,914,915,916,915,914,913,913,913,913,914,914,914,912,912,913,915,915,915,913,910,906,904,907,910,911,908,905,903,901,901,903,908,911,910,904,898,894,893,893,893,894,893,891,890,889,887,885,885,890,897,905,903,898,891,884,879,876,874,873,871,871,873,875,876,875,874,875,876,879,877,870,861,854,849,843,836,829,823,817,809,806,807,814,821,821,812,804,802,809,814,815,810,807,807,811,811,802,780,762,750,744,743,742,740,735,728,723,719,717,718,718,717,717,718,719,720,723,731,745,755,760,765,765,765,763,765,766,765,766,767,770,771,772,771,771,771,771,770,784,828,890,919,932,932,935,937,939,941,939,940,942,942,945,943,946,945,947,948,946,950,950,949,944,942,942,941,939,0
0,864,864,869,870,872,867,868,867,867,866,866,866,867,867,867,867,864,849,818,791,745,705,696,696,695,699,699,700,700,703,704,702,699,697,700,701,704,703,704,704,705,704,702,703,705,706,706,704,705,704,703,694,684,676,672,669,667,667,667,668,668,668,670,670,672,673,676,681,684,687,685,687,691,704,724,743,758,769,780,785,788,788,791,792,793,794,797,799,801,804,804,805,804,805,805,808,809,806,800,793,790,790,796,802,805,802,799,799,801,807,814,818,820,820,824,830,840,846,849,851,853,856,860,865,868,870,872,875,878,878,880,878,877,875,879,883,886,887,886,886,888,891,889,886,882,881,881,882,883,883,882,880,881,881,882,882,883,883,884,885,889,887,887,887,889,889,889,889,890,890,890,890,894,896,896,893,891,890,891,892,892,892,894,894,893,891,892,894,893,892,891,892,892,894,895,896,898,898,896,894,893,893,892,890,891,892,893,894,893,893,893,894,895,893,892,890,892,894,896,896,898,899,899,898,897,897,897,897,898,898,897,897,897,899,900,902,901,902,901,901,901,903,906,904,903,901,902,904,906,906,904,902,902,903,903,904,904,904,904,904,904,905,903,902,902,903,904,906,907,907,908,909,909,908,908,908,908,908,907,906,905,905,906,906,905,905,906,910,913,913,911,911,912,912,913,913,913,913,913,910,910,911,912,911,911,912,913,911,907,906,906,910,912,915,913,913,911,912,914,915,914,913,912,910,908,909,910,912,913,914,913,912,911,913,913,914,915,916,915,914,913,914,914,914,916,916,915,914,913,913,912,912,912,913,912,910,910,912,914,914,914,913,910,906,905,907,909,907,905,903,902,901,902,903,906,908,907,900,894,893,892,892,890,891,891,891,889,887,885,884,884,887,893,900,900,894,889,883,880,877,876,875,873,873,875,878,879,878,878,879,879,877,870,862,854,849,846,840,833,824,817,812,811,812,815,818,822,823,818,808,803,806,813,816,814,812,812,813,809,795,773,758,750,745,743,740,735,730,725,722,719,717,718,718,717,717,717,718,719,723,730,743,754,762,767,768,767,766,768,770,769,768,770,773,775,774,773,774,774,774,774,793,847,896,920,930,934,936,938,938,936,935,938,943,942,944,942,945,944,944,944,941,946,946,948,944,942,941,938,937,0
0,864,864,872,870,870,868,868,866,867,869,867,864,866,866,868,863,861,845,827,798,759,718,704,703,701,702,700,698,699,703,704,702,699,697,698,699,703,704,705,704,705,703,704,704,706,706,707,705,704,700,692,682,675,671,669,669,668,667,666,668,668,667,668,671,675,679,683,687,687,686,683,685,690,705,726,746,760,770,779,785,789,790,792,794,793,796,798,801,802,803,804,806,806,807,807,809,807,802,796,792,790,789,795,803,808,806,802,800,801,805,812,818,823,826,832,837,843,847,851,853,855,857,862,865,868,869,872,874,876,876,878,878,878,877,879,884,888,888,888,888,890,892,891,888,885,883,881,880,881,882,883,882,883,882,882,882,884,884,885,886,888,888,887,888,890,890,887,887,887,888,890,893,895,895,893,891,890,890,890,891,892,892,893,892,892,891,892,892,891,891,891,893,894,894,896,897,899,898,894,891,891,891,890,890,891,892,890,890,889,891,895,897,897,894,892,892,894,897,898,899,898,898,898,898,897,897,895,896,896,897,897,898,898,901,902,903,901,901,900,901,902,903,905,906,904,902,901,901,903,904,903,901,899,901,903,905,905,904,902,901,901,903,903,905,904,904,905,906,908,907,907,907,907,909,909,908,906,905,907,907,905,905,906,907,905,905,907,911,914,913,912,911,912,912,912,912,913,914,914,911,910,909,909,908,910,913,914,914,910,910,909,913,913,915,914,913,911,914,915,916,915,913,913,912,909,909,911,912,913,912,911,910,910,912,913,914,915,916,915,915,913,913,913,913,914,914,914,914,913,913,912,913,912,913,911,910,910,912,914,914,914,914,911,908,907,907,907,902,900,899,899,900,900,901,904,908,906,899,892,892,892,891,889,889,889,890,888,886,884,883,884,887,892,897,897,892,888,884,880,877,876,877,876,876,878,881,884,882,882,881,878,872,862,854,848,847,847,842,834,822,814,811,814,819,824,823,826,823,820,811,805,804,810,816,818,816,813,810,806,793,774,758,748,742,738,736,733,730,726,723,721,720,718,718,716,716,716,717,719,722,728,740,752,762,765,766,766,767,770,771,771,771,771,770,772,772,774,772,772,771,776,801,861,905,925,933,935,935,937,936,935,934,938,940,940,942,941,944,941,943,942,940,941,942,944,943,941,942,943,944,0
0,864,866,872,871,873,871,867,864,864,868,867,865,865,864,864,861,856,842,819,777,757,727,709,705,702,703,700,698,698,701,701,699,699,699,702,703,705,703,704,704,704,701,702,704,707,707,707,703,694,685,676,673,670,669,667,668,668,668,666,667,667,669,670,675,679,684,685,686,685,684,682,684,689,705,727,746,760,769,779,785,788,788,788,790,790,793,796,799,800,801,803,805,805,805,806,806,802,796,792,789,789,788,794,802,808,806,803,803,803,805,809,815,821,829,835,840,845,848,852,853,855,856,860,863,867,868,871,873,874,874,876,876,877,877,880,884,887,888,889,891,893,894,893,891,887,884,880,878,878,880,882,881,881,880,882,881,884,885,888,887,886,885,884,887,888,888,885,884,884,888,889,893,894,892,889,887,887,887,887,888,889,890,891,889,889,888,891,890,889,889,892,894,895,895,895,896,897,896,893,890,889,889,888,889,891,892,889,889,889,891,895,896,896,894,892,894,896,898,899,898,898,897,897,896,896,897,896,895,894,894,894,895,898,901,901,902,901,901,901,900,901,902,903,905,904,902,901,900,902,904,904,902,900,900,903,905,906,903,900,900,898,900,901,905,906,905,904,904,905,906,906,906,907,907,906,905,905,904,905,906,907,906,906,907,906,906,909,913,913,911,910,910,910,909,910,910,913,914,914,912,910,908,906,906,907,910,911,913,914,915,916,916,916,917,915,914,912,914,914,915,914,913,913,912,909,909,911,913,913,911,911,910,912,913,913,912,913,914,914,915,914,914,913,912,912,913,914,913,911,911,911,912,911,911,911,910,911,912,914,914,912,911,909,908,906,903,900,896,895,895,896,896,895,897,899,903,902,897,891,890,889,889,888,887,886,887,887,886,884,883,883,885,890,893,892,888,885,884,882,879,878,879,880,881,884,886,887,884,882,878,871,864,855,851,847,848,847,842,831,818,810,809,817,825,830,826,823,821,819,814,805,802,807,816,820,817,812,807,802,792,775,755,742,736,734,733,732,731,728,724,721,719,718,717,715,715,716,717,720,722,727,737,750,762,765,767,768,769,771,772,772,771,770,769,770,771,774,774,773,773,781,813,874,913,929,934,935,935,937,938,938,939,941,939,937,937,937,938,935,940,941,940,937,937,940,939,939,940,943,942,0
0,862,866,875,873,873,869,869,866,866,868,867,865,862,861,863,860,855,840,819,762,752,733,710,703,702,704,705,703,699,698,697,699,701,701,702,705,706,704,703,703,702,701,703,705,707,707,704,693,678,673,670,671,671,670,669,669,670,670,669,670,672,674,675,680,682,684,684,685,685,683,681,683,689,706,730,748,761,770,778,784,786,786,786,789,791,794,796,798,798,800,802,805,806,806,805,804,798,793,789,789,789,788,791,799,805,807,805,806,806,807,809,815,824,832,839,844,848,852,854,855,856,857,860,861,866,867,871,871,872,872,874,876,877,878,880,883,885,887,890,892,895,895,895,894,888,882,876,875,875,878,881,882,882,881,882,882,885,886,888,887,886,885,884,886,886,886,884,883,884,888,890,894,893,890,886,885,886,887,887,888,888,889,889,888,888,889,889,887,886,888,892,895,895,895,896,896,897,896,894,892,890,889,887,887,889,892,891,891,891,893,894,893,892,893,896,898,899,899,898,898,899,896,894,892,895,897,897,895,894,895,894,896,898,900,900,900,900,902,902,902,900,899,900,903,904,903,902,901,902,904,906,905,902,901,902,903,904,902,900,900,899,899,902,906,906,905,903,904,904,905,905,906,907,907,906,905,905,904,905,906,906,905,906,907,907,908,911,913,913,912,910,909,909,908,908,909,911,912,912,912,910,907,905,905,906,906,908,910,912,913,914,915,917,917,917,915,915,915,917,916,915,914,914,913,911,910,912,914,913,911,910,910,913,914,915,913,913,913,913,914,914,914,912,911,910,911,912,912,911,911,910,910,910,911,913,913,912,912,913,913,912,910,908,907,905,902,899,895,894,895,894,893,891,893,896,901,901,897,891,888,888,888,888,888,887,887,888,887,885,883,882,883,888,890,889,884,883,884,883,882,881,882,885,887,890,890,887,882,875,871,864,860,854,852,851,849,847,841,833,820,810,809,818,827,831,826,821,819,817,813,805,803,807,816,819,815,811,806,803,795,774,753,740,735,733,733,734,734,731,727,722,720,717,715,714,714,717,717,720,721,725,732,745,759,765,767,767,767,770,772,775,775,773,770,769,769,772,774,772,772,784,821,887,923,933,935,933,934,937,939,939,939,941,939,938,937,939,940,939,943,941,940,936,938,939,938,939,941,947,946,0
