0,0,898,944,925,943,941,944,948,941,935,951,901,959,0,959,966,965,969,957,944,953,938,947,953,949,954,958,969,968,956,943,932,945,941,942,933,947,939,936,926,922,919,936,935,944,951,943,938,920,932,949,945,935,924,925,925,927,943,952,937,931,929,929,931,940,934,931,940,947,945,936,933,889,858,810,0,804,799,793,797,793,795,789,788,790,786,773,756,751,750,754,758,757,759,758,763,767,770,765,757,752,754,759,764,765,762,760,761,763,766,768,768,766,766,769,772,771,769,768,770,769,771,770,773,772,769,769,769,774,778,782,785,791,791,788,777,769,763,766,770,766,764,765,771,779,778,773,775,774,775,774,774,770,767,769,771,773,768,769,768,769,769,770,774,776,779,777,776,773,771,772,772,772,772,770,771,770,772,773,772,771,769,770,772,770,768,767,768,771,772,774,772,775,779,778,775,770,770,771,773,774,770,769,769,773,774,773,774,773,777,778,782,781,780,779,780,786,790,791,786,779,775,772,775,784,801,812,808,794,775,767,764,760,756,754,754,753,753,753,753,754,759,764,774,781,784,782,783,783,780,779,778,777,774,774,774,774,774,776,779,779,777,775,772,772,771,774,773,775,774,773,771,769,769,768,766,765,766,768,770,771,770,768,769,771,771,770,770,770,771,772,773,771,771,771,772,772,774,775,774,772,771,773,772,775,775,774,772,772,773,775,775,777,774,772,770,773,773,774,773,774,775,776,777,774,777,777,779,779,783,785,789,792,797,800,800,801,801,799,797,796,797,803,808,810,807,804,805,806,808,808,804,799,799,794,793,787,788,788,787,793,799,813,827,865,902,932,956,958,955,946,950,952,968,979,984,979,975,973,975,979,986,983,985,986,986,982,983,982,982,979,982,985,987,985,981,983,983,985,988,990,983,981,990,992,985,988,997,1002,994,980,971,974,985,989,983,985,992,1003,1007,1002,987,989,994,1001,994,982,987,986,985,981,979,995,1012,1001,996,987,1004,1005,1003,991,987,994,992,984,980,982,1017,1029,1030,1016,1005,1011,1020,1023,1013,1011,1003,999,1010,1010,1025,1010,1017,1009,1013,1004,1020,1034,1043,1012,1008,1017,1039,1021,1001,1000,988,987,991,992,1058,1074,1082,1046,1017,1017,1039,1043,1051,1057,1044,1001,0,1041,1049,1066,1051,1052,1062,0,1058,0,0,0,1023,0,0,0,968,0
0,963,933,0,940,957,943,941,946,972,972,931,935,953,959,992,940,957,953,951,954,930,937,965,963,958,948,947,952,963,943,934,923,927,938,947,950,947,950,946,937,927,926,925,942,946,956,953,930,927,937,942,935,926,926,933,925,933,934,941,935,940,935,933,926,923,919,925,932,945,931,916,920,849,814,810,809,801,805,802,803,798,799,796,795,796,802,775,757,748,753,758,765,761,760,759,762,765,768,767,760,755,753,758,762,765,764,763,762,760,763,767,770,768,768,771,775,774,771,770,770,773,777,780,780,776,771,772,772,775,777,782,789,798,799,796,783,777,771,771,771,766,763,764,770,779,781,778,779,778,780,783,783,780,777,777,778,778,773,772,768,770,769,770,773,775,778,776,775,771,769,769,771,772,770,768,766,768,772,776,777,773,770,769,771,769,769,770,770,771,770,774,776,783,788,787,783,776,771,769,770,773,770,768,767,771,773,773,772,771,773,775,780,782,781,780,782,789,791,788,782,776,776,771,774,776,786,802,812,811,790,774,764,760,758,755,755,753,754,752,755,759,766,772,783,784,784,780,783,783,780,780,779,777,774,773,773,774,775,776,777,780,778,775,770,771,771,772,770,771,771,772,768,768,767,767,765,765,765,767,769,771,771,770,771,773,772,772,772,774,775,775,774,772,770,771,772,773,772,771,770,770,769,771,770,774,774,773,771,773,775,774,774,774,772,770,770,772,774,775,773,773,773,775,776,776,776,777,778,780,781,782,782,785,789,793,796,799,800,801,795,794,793,801,805,804,801,800,803,805,805,807,800,797,794,792,791,787,786,786,786,789,788,793,797,808,827,842,879,0,910,913,936,946,962,971,977,975,978,979,981,986,987,981,977,981,984,984,986,986,985,984,986,988,990,987,983,983,986,986,984,984,982,982,993,991,988,976,985,986,983,974,971,984,986,985,982,982,997,1001,1006,995,985,978,983,988,984,979,980,983,989,982,987,988,1002,1007,997,997,999,1008,1004,984,982,981,1000,988,990,990,1002,1002,1026,1005,1005,1005,1007,1001,1002,1011,997,981,993,998,1000,1013,1015,1019,1015,1024,1029,1027,1034,1026,999,1020,1019,1012,1000,987,1009,1012,990,998,1012,1033,1065,1059,1037,1033,1023,1034,1014,1048,1033,0,1008,0,0,1054,0,1076,0,0,0,1042,1018,1008,0,0,0,1012,1047,0
0,964,946,928,955,958,953,955,943,950,974,969,952,945,965,921,945,912,948,961,939,943,948,941,969,961,950,947,950,953,944,926,904,912,937,946,949,945,949,947,949,937,934,944,941,953,960,955,930,926,934,938,920,933,938,939,936,938,934,940,953,954,944,930,918,919,928,930,931,924,904,870,839,829,827,811,809,799,802,798,799,798,803,803,802,803,808,781,755,745,755,763,766,764,761,760,758,760,762,762,761,758,759,759,760,762,767,769,767,764,763,767,771,773,774,776,779,777,774,772,773,775,781,784,786,783,779,776,772,774,775,783,794,804,805,801,791,784,776,775,775,768,766,765,772,776,781,780,782,784,793,800,800,799,796,797,794,790,782,778,773,772,769,770,772,775,778,775,775,772,771,770,773,774,774,770,771,770,775,780,781,777,774,771,772,769,770,771,772,774,776,782,787,794,797,796,791,785,778,773,773,774,773,770,769,771,772,771,770,769,771,775,779,782,783,783,783,787,788,784,779,774,774,771,775,776,778,784,801,813,804,780,765,760,759,756,755,754,755,754,759,765,773,780,791,789,784,779,784,784,783,782,781,778,775,773,772,773,776,776,776,778,779,776,773,772,771,771,770,771,770,770,768,769,768,769,767,768,767,768,770,772,773,773,774,775,775,774,774,774,776,777,775,772,770,772,775,776,775,771,770,771,773,775,774,776,775,774,771,773,775,776,776,774,772,769,770,772,774,774,775,775,776,778,779,778,777,777,778,778,777,777,778,779,781,786,795,801,803,802,798,794,792,798,799,799,795,794,799,799,806,804,804,796,792,788,787,786,787,787,787,787,787,788,787,792,794,802,810,822,837,845,873,913,935,949,960,962,967,971,979,981,984,980,980,978,979,982,982,981,981,987,984,983,982,990,986,984,981,980,985,985,984,984,990,990,982,983,984,985,983,978,978,984,992,992,988,992,994,990,987,994,988,982,988,992,993,985,979,976,982,991,985,987,997,1001,1000,988,992,999,1005,992,983,994,1003,1001,1003,998,1007,1006,1014,1008,981,996,1004,1004,1008,1013,1006,995,994,1008,1012,1016,1012,1013,1020,1034,1029,1034,1028,1026,1036,1028,1004,1007,992,976,1001,1015,1020,998,1010,1036,1032,1050,1060,1043,1011,995,1025,0,1027,992,0,1017,1035,0,0,0,0,0,1060,1056,1029,0,0,0,0,0,0,0
0,961,944,932,940,950,948,943,930,943,965,972,960,953,937,951,929,946,960,0,965,942,947,927,942,953,953,946,949,957,947,929,920,904,920,933,931,946,941,942,934,934,949,949,956,953,962,951,939,942,932,915,923,926,920,923,933,939,941,958,948,953,937,928,918,926,929,934,919,902,0,820,823,823,822,813,809,798,797,793,797,800,803,801,799,806,808,781,758,752,757,759,761,762,760,758,753,755,758,761,758,757,759,760,757,761,765,770,767,768,767,772,777,782,784,785,785,783,782,781,781,782,785,788,791,787,783,779,773,773,774,785,801,810,812,805,797,792,786,783,780,774,772,771,774,776,780,783,787,795,807,816,816,815,812,813,807,802,790,782,773,772,771,771,772,774,777,776,775,772,772,769,774,775,779,773,772,771,774,778,782,780,779,776,776,775,776,778,779,783,786,795,800,805,803,801,795,789,782,776,773,773,773,773,771,772,771,772,771,772,772,774,774,778,781,785,785,786,785,781,777,771,770,769,771,771,773,775,785,800,799,779,765,760,758,755,753,753,755,758,765,772,780,789,795,792,785,783,787,787,787,787,786,782,777,776,775,775,774,775,776,778,777,774,771,771,771,771,770,771,770,769,768,770,770,770,767,768,769,771,772,772,771,771,772,773,774,775,775,775,776,778,777,773,769,770,773,776,774,770,770,772,776,778,780,779,777,775,774,774,776,777,777,775,773,771,772,775,778,777,776,777,777,779,779,778,777,777,779,778,777,778,780,782,782,783,787,791,796,797,796,794,794,797,795,795,791,791,792,794,801,801,797,791,791,792,789,786,785,785,783,782,784,786,788,790,790,793,797,803,808,814,824,840,869,905,920,938,942,957,967,970,972,974,977,976,975,978,978,975,980,984,983,979,980,983,985,985,981,974,976,977,982,990,995,990,986,992,992,984,978,976,976,978,983,986,985,977,976,971,985,994,992,983,991,994,1003,1001,1001,994,992,990,991,987,985,993,992,992,995,1013,1015,1008,1005,997,1002,1003,1014,1002,999,1002,1009,998,989,992,1007,1000,1004,1008,1017,1016,1001,1009,1032,1023,1020,1014,1029,1019,1023,1021,1017,1029,1031,1022,1019,1014,991,987,1011,1016,1009,1008,1006,1047,0,0,1051,1052,1001,1012,1016,1028,1027,1024,976,1015,1026,1042,1055,1044,1042,1054,1081,1090,0,0,0,0,0,0,0,0
0,973,953,970,945,948,947,939,942,960,975,978,951,929,953,945,949,956,979,0,946,940,930,932,931,945,939,938,946,950,945,941,936,941,903,912,931,940,945,931,928,929,944,949,948,955,948,958,968,952,932,914,921,925,916,924,936,942,0,939,941,929,926,928,928,924,919,913,841,809,820,812,804,803,807,806,803,793,791,789,797,801,803,800,800,809,804,769,755,753,752,749,747,753,754,757,756,758,760,762,761,759,761,760,759,761,764,769,770,775,776,780,785,792,796,794,793,790,791,790,791,789,789,790,792,791,789,784,777,776,778,792,809,816,816,806,801,797,792,789,788,783,779,776,778,780,783,787,796,807,820,825,825,824,823,823,816,808,794,783,776,774,773,773,774,775,777,776,776,775,774,771,775,776,781,777,778,775,772,774,781,788,788,782,779,779,782,785,787,793,798,804,807,806,802,796,793,789,784,780,777,775,775,776,776,778,774,776,774,776,775,774,774,776,780,784,785,784,782,778,773,768,768,767,768,768,771,771,775,784,781,769,761,760,760,756,751,752,754,763,770,779,786,795,799,795,786,785,788,789,790,791,789,784,779,778,778,777,776,777,777,776,774,772,772,772,771,770,771,773,773,771,770,771,770,769,767,770,774,775,772,771,772,772,771,771,773,774,775,777,777,778,775,770,767,768,772,775,777,775,775,774,777,780,783,780,778,776,777,777,778,778,779,779,778,775,774,775,777,778,780,781,780,780,780,779,778,778,778,776,775,777,779,783,782,783,783,785,789,792,796,797,798,797,794,792,790,788,786,786,793,794,794,789,789,789,784,783,784,783,781,781,786,788,789,789,791,792,793,798,803,808,812,817,822,834,857,872,893,903,933,946,961,967,978,974,977,977,975,971,975,980,980,977,973,971,977,982,982,973,973,973,983,989,985,985,982,996,994,990,982,977,973,970,977,985,983,976,968,980,1001,998,989,986,987,994,999,1011,1014,1014,993,986,997,988,990,991,995,994,1002,1016,1016,1009,1003,1002,998,1003,1006,1005,1003,996,992,987,999,1015,1016,1019,1002,1006,1017,1010,1004,1010,1024,1031,1022,1017,1004,1007,1004,1011,1021,1011,1011,1012,1011,1024,1020,1030,1027,1018,999,1013,1017,1021,1042,1034,1044,1055,1047,1049,1064,1044,1039,1028,1017,1007,1011,1031,1028,1036,1042,0,0,0,0,0,0,0,0,0,0,0
0,0,954,949,958,939,936,950,971,978,940,975,932,910,0,958,939,939,961,966,956,914,924,932,927,928,923,941,939,948,943,950,960,954,919,913,944,963,953,928,917,924,931,936,940,932,940,949,956,943,923,928,931,930,931,930,943,931,926,926,920,914,912,932,926,908,885,833,802,797,804,804,802,796,799,800,799,791,789,793,800,804,801,801,798,804,790,764,750,752,747,744,742,745,749,753,756,757,760,763,762,761,760,762,761,763,763,765,768,777,782,787,793,800,803,802,800,799,798,799,798,797,793,793,792,792,790,789,787,786,788,802,817,820,814,805,802,800,798,796,794,790,784,780,780,785,792,799,808,821,829,831,828,828,826,823,815,810,796,786,779,779,778,776,774,775,777,778,778,775,774,772,775,778,780,778,776,776,776,780,787,794,795,786,781,781,784,788,791,796,797,797,798,798,797,792,788,786,784,785,782,779,776,778,779,784,782,784,782,783,780,778,777,776,780,784,785,780,776,773,769,765,765,765,767,767,768,768,770,774,766,759,757,760,761,756,749,750,753,767,775,784,792,800,800,792,784,786,789,791,790,793,789,786,779,780,780,778,776,776,776,774,773,771,766,766,766,770,772,773,774,774,773,774,773,773,775,780,786,784,779,776,775,774,773,773,775,776,777,777,777,778,775,770,767,768,772,775,777,777,777,775,778,782,785,780,777,777,778,779,778,778,778,779,780,780,779,779,781,781,782,781,781,781,781,779,778,778,780,779,779,779,779,782,783,784,782,780,781,786,790,795,799,800,796,794,790,788,784,785,788,789,788,787,788,788,783,782,784,783,784,783,788,790,792,791,790,790,791,797,799,804,807,812,810,812,817,821,831,854,870,902,931,953,964,968,970,972,973,972,975,973,976,975,974,969,974,979,981,975,973,978,987,989,983,984,983,991,985,985,977,976,966,969,972,976,972,967,971,988,997,990,984,984,984,978,986,1000,1012,1007,998,994,989,996,993,986,992,1003,1006,1005,1007,1001,1002,1003,999,990,996,997,996,998,991,993,1001,1016,1020,1013,1017,1016,1006,1010,1006,1006,1017,1029,1027,1022,1009,1007,1014,1013,1003,1004,999,1010,1018,1025,1047,1044,0,999,1023,1014,1012,1017,1027,1034,1033,1059,1073,1061,1054,1063,1064,1042,1010,1015,1019,1024,1031,1029,0,0,0,1084,0,0,0,0,0,0,0,0
0,967,949,930,930,917,937,957,980,953,972,936,927,924,951,961,939,919,927,929,891,933,928,936,945,916,933,946,958,949,956,957,960,940,914,927,955,969,938,929,923,920,926,934,943,934,931,936,934,934,934,935,941,943,940,932,935,935,937,932,921,906,915,892,880,0,842,823,796,789,793,800,797,794,792,796,795,793,789,794,801,805,806,805,803,798,778,762,752,750,744,745,742,745,747,753,758,761,763,763,761,762,762,764,763,765,765,766,771,778,786,790,795,801,804,805,805,804,804,803,801,799,796,797,795,794,795,796,801,801,804,814,822,821,810,801,799,799,799,799,798,797,792,788,789,796,806,812,822,829,834,831,829,828,826,821,814,809,799,791,785,786,786,782,778,776,779,781,781,778,777,777,779,780,777,773,774,779,785,792,800,804,799,787,782,780,782,785,789,791,789,786,788,790,793,793,795,797,800,804,800,794,786,783,782,784,783,785,785,785,783,781,782,782,785,785,783,776,773,768,767,765,766,766,769,769,768,767,765,767,759,757,756,761,762,756,750,752,757,771,781,791,801,804,801,790,785,787,790,793,792,795,790,787,780,780,778,776,772,770,769,771,772,771,766,765,764,767,771,776,779,780,781,785,786,789,793,800,806,800,792,786,784,782,781,780,781,781,780,777,777,778,775,770,769,771,776,777,779,782,784,781,783,786,787,781,777,776,776,777,778,777,778,780,783,783,782,783,785,785,783,781,782,782,780,779,781,782,783,781,780,779,779,781,782,783,782,783,782,785,787,792,794,798,795,794,790,790,787,785,785,785,786,785,785,782,779,781,786,787,786,785,787,786,786,788,787,785,785,791,796,801,805,810,810,807,803,795,803,814,826,832,859,916,947,957,963,965,967,967,965,968,973,970,971,964,969,969,971,969,969,975,980,979,972,974,978,984,979,979,978,977,973,968,968,964,970,974,982,988,985,985,979,987,981,979,980,989,995,993,997,988,989,989,990,980,985,1000,999,998,994,994,996,1003,1000,997,994,997,995,994,996,989,987,994,1007,1012,1020,1022,1012,1006,1017,1010,1007,1011,1019,1019,1016,1020,1014,1018,1007,1001,1009,1027,1022,1030,1047,1032,1003,1022,1014,1012,1008,1028,1031,1040,1007,1015,1032,1022,1036,1054,1050,1036,1022,1018,1032,1023,1021,1038,0,0,1086,1082,0,0,0,1034,0,0,0,0
0,960,943,922,922,966,959,964,972,1000,955,928,932,943,953,972,921,935,933,932,912,944,939,954,941,925,922,962,964,960,938,957,946,932,930,943,947,935,942,942,948,930,927,937,945,949,938,929,925,931,938,941,944,948,939,928,937,941,942,925,912,918,0,838,796,806,818,808,794,790,795,799,801,800,797,799,797,794,789,795,799,806,808,809,801,790,770,762,751,749,747,751,750,748,747,751,755,759,760,760,755,758,759,765,764,767,767,768,770,775,784,790,797,802,805,807,807,807,806,806,802,801,801,802,799,798,799,802,806,808,811,821,823,819,805,799,799,803,804,804,804,807,806,803,804,809,817,823,831,834,834,831,830,830,827,822,815,812,805,798,792,794,795,791,783,778,779,782,782,778,778,781,782,780,776,775,778,789,802,811,816,812,803,789,784,779,777,777,779,780,780,778,779,781,790,800,807,810,813,818,815,811,801,792,784,781,780,781,783,785,785,786,788,790,791,787,780,775,771,768,766,766,768,768,770,768,766,762,759,760,757,758,758,762,762,757,753,755,762,777,788,797,808,810,805,794,792,795,798,800,798,800,796,793,784,783,777,777,774,771,770,773,778,777,768,767,766,772,777,783,789,794,798,805,809,814,817,822,822,817,809,800,795,793,791,788,786,786,784,779,778,781,780,774,772,776,781,785,788,793,796,793,790,791,788,782,778,775,775,776,782,784,788,789,790,788,787,787,788,787,784,783,784,783,779,778,781,784,785,783,780,779,780,783,784,787,787,787,785,786,785,789,791,795,793,793,791,793,790,786,784,784,785,784,784,783,783,782,783,784,785,784,782,780,781,783,785,783,784,790,794,797,795,801,805,807,801,793,796,804,807,811,822,839,891,0,945,950,949,948,949,951,955,954,956,955,952,948,952,953,953,955,961,959,956,957,963,974,967,961,958,966,968,963,954,948,954,966,969,964,966,969,971,959,959,969,963,963,974,985,1000,997,989,982,976,972,985,1007,1004,995,993,989,998,997,998,985,995,994,992,1000,1003,991,980,984,997,1009,1022,1026,1015,1020,1019,1011,1001,1009,1014,1021,1026,1023,1012,1016,1010,1007,1008,1019,1020,1026,1022,1023,1033,1033,1025,1009,1006,1031,1030,995,989,1000,1026,1034,1037,1021,1027,1019,1023,1026,1016,1019,1011,1057,0,959,1029,1027,0,0,0,981,0,0,1070,0
0,948,931,940,966,944,967,968,973,953,973,924,955,942,975,960,948,937,939,944,966,946,934,935,949,932,939,962,970,960,943,932,918,930,936,934,923,911,928,950,964,953,942,937,940,936,936,932,934,938,947,943,941,939,945,943,943,939,948,874,863,826,844,756,794,813,808,793,793,798,800,796,799,802,801,804,801,797,795,799,801,805,808,808,801,786,767,759,750,747,745,750,750,747,745,750,753,758,758,759,756,759,760,765,764,767,769,771,771,773,779,788,794,800,803,806,806,805,807,806,805,805,807,806,803,801,804,806,811,813,819,824,823,814,801,798,800,805,807,808,811,817,818,817,818,821,825,828,832,831,830,830,831,831,827,823,818,814,809,804,802,801,802,799,791,784,782,783,782,781,781,785,784,781,779,781,790,806,820,825,824,818,806,791,784,778,774,773,774,776,778,778,778,777,785,798,812,815,820,822,821,819,813,803,790,780,778,777,780,781,784,787,792,796,793,787,780,776,773,769,767,767,770,770,769,766,766,761,759,759,760,762,762,764,764,761,760,762,769,782,794,806,816,817,811,804,805,807,811,809,806,805,806,807,803,799,791,789,785,781,781,785,790,789,784,782,782,785,792,800,808,814,821,826,830,832,831,831,830,829,822,811,805,803,798,793,791,793,793,788,787,788,787,782,779,783,790,797,801,806,809,805,799,793,787,783,781,779,779,783,793,798,801,799,796,790,788,788,789,787,785,785,786,784,780,780,782,786,785,782,778,779,782,784,785,787,788,790,788,788,788,788,789,789,788,788,788,791,790,786,783,783,783,782,781,783,784,784,783,783,782,782,780,778,778,781,784,782,784,789,795,796,794,795,800,798,793,790,794,800,799,799,804,809,822,855,893,907,907,907,907,896,880,887,884,883,885,880,893,886,893,895,890,901,894,897,909,921,874,867,899,915,934,928,926,926,931,930,917,908,913,934,906,891,891,922,925,902,909,973,987,988,982,965,964,967,988,1009,1004,987,982,982,992,997,995,992,1005,1004,995,997,999,983,981,986,993,1001,1012,1013,1019,1022,1018,1002,1007,1005,1014,1017,1019,1015,1012,1022,1025,1005,1007,1005,1016,1023,1022,1008,1021,1031,1028,1023,1028,1023,1040,1029,1002,1004,1033,1060,1047,1031,1010,1011,1026,1016,1016,1017,1022,1027,1026,975,984,1003,995,0,0,0,0,1062,1043,0
0,920,942,964,971,953,947,967,959,954,933,951,955,986,973,954,945,943,928,946,959,949,928,925,934,941,947,948,955,960,940,938,925,927,942,944,918,906,918,947,961,963,945,934,926,926,929,936,939,940,952,949,947,938,941,948,942,915,864,844,823,806,757,767,0,808,805,794,801,797,794,792,801,803,803,799,802,799,801,802,801,803,805,810,803,792,758,755,751,749,746,747,749,746,747,751,755,756,756,757,758,761,762,766,764,766,768,771,770,771,775,783,792,797,800,801,804,805,808,809,808,809,809,809,806,806,809,812,814,816,821,824,820,808,798,797,802,808,813,816,818,820,821,821,823,826,829,831,833,832,831,832,833,833,829,824,819,816,813,809,805,805,804,805,799,794,787,786,783,782,781,782,782,784,789,797,810,825,829,829,826,821,808,794,784,777,772,771,771,771,772,773,774,772,778,787,803,809,816,819,818,818,816,810,798,787,782,779,780,781,785,791,796,800,801,802,794,782,770,766,766,769,770,768,763,759,759,758,759,762,765,763,763,765,766,767,764,768,774,791,803,815,821,822,817,815,818,821,823,820,813,809,812,822,824,821,816,816,812,809,808,811,814,812,810,810,812,814,818,823,828,833,835,836,836,834,832,832,834,836,828,820,812,811,806,800,800,801,803,801,799,798,798,796,794,799,805,814,817,821,820,812,803,794,785,781,781,785,790,798,810,816,812,803,795,790,789,788,788,787,786,785,785,783,781,779,780,785,785,782,779,780,782,783,784,787,788,790,788,788,788,790,790,789,788,788,788,790,791,790,787,785,781,782,782,785,785,785,783,782,782,783,782,781,781,782,784,783,783,787,789,791,791,795,795,791,788,789,789,789,789,792,796,797,803,810,825,835,839,839,850,835,826,819,816,807,806,812,814,817,823,822,818,816,825,843,847,840,824,825,836,843,837,853,861,848,839,841,838,836,838,842,843,835,849,856,855,843,847,0,896,931,938,944,936,951,973,1003,1005,990,981,981,993,995,1000,993,1000,999,1001,1002,997,989,984,982,992,998,997,1000,1005,1016,1004,1009,1004,1018,1021,1020,1015,1017,1017,1021,1025,1030,995,1002,1010,1024,1020,1013,1007,1021,1017,1033,1036,1034,1025,1030,1017,1038,1032,1042,1062,1033,1021,1034,1019,1021,1022,1034,1034,1038,1024,992,974,1006,0,0,0,0,0,1061,1057,0
0,915,946,991,1010,966,958,948,953,936,927,934,953,970,945,951,951,949,955,951,952,940,921,931,934,948,938,945,943,947,943,940,927,937,949,953,934,911,913,928,942,935,926,935,925,916,929,938,945,943,953,953,945,931,925,920,943,825,823,809,831,783,769,772,794,800,803,801,804,797,795,794,802,804,805,802,804,802,804,802,802,803,805,811,808,778,752,751,752,752,747,746,744,743,745,748,754,755,757,759,763,766,764,764,762,765,768,772,772,773,772,777,783,793,799,801,803,804,807,808,808,809,809,810,808,810,811,812,813,819,826,826,818,806,803,804,808,811,817,819,821,821,822,822,824,827,832,832,833,833,834,835,835,834,827,821,817,817,814,812,809,808,804,804,802,799,793,788,783,782,781,776,780,789,806,819,829,836,834,831,826,823,814,802,789,778,773,771,773,772,772,771,773,772,776,779,789,796,806,810,810,810,814,813,807,797,791,788,787,788,791,798,809,817,823,826,820,802,784,777,773,771,766,762,755,754,754,760,766,770,773,765,764,763,766,769,767,773,782,803,816,824,826,825,821,824,828,830,831,828,820,814,820,833,842,845,847,845,844,841,841,841,839,837,837,838,839,838,838,837,838,839,840,839,839,834,833,833,838,841,835,826,819,818,816,812,811,811,812,809,806,804,806,809,813,816,821,825,826,825,822,816,808,795,783,781,784,795,806,816,820,818,810,800,794,792,790,787,785,785,785,782,782,781,781,780,782,785,784,783,782,782,784,784,784,783,786,788,787,787,788,791,791,790,789,787,787,788,790,791,789,786,780,780,779,782,784,786,786,784,784,784,785,784,784,785,785,784,784,786,786,787,791,794,793,787,785,785,787,787,787,787,789,788,791,789,798,801,811,812,812,811,804,802,800,798,800,798,798,799,803,806,801,800,802,817,819,817,809,810,811,811,811,815,816,810,802,808,807,816,815,825,831,833,830,830,825,815,826,845,859,859,866,857,885,912,954,979,989,989,987,984,988,992,993,993,992,1001,1003,1001,1003,993,986,986,991,1003,998,989,987,998,1000,1004,1024,1023,1023,1016,1011,1020,1021,1019,1008,1004,1021,1021,1010,1018,1017,1011,1010,1017,998,1010,1045,1041,1011,1028,1043,1018,1043,981,1029,1030,1029,1031,1032,1024,1030,1031,1026,1016,992,990,1006,992,1027,0,0,0,0,1082,1107,0
0,913,939,976,983,978,958,971,932,926,925,934,946,938,941,915,930,960,958,950,938,930,927,932,955,954,944,939,929,925,933,939,939,938,944,940,934,926,926,923,923,925,932,935,935,936,941,941,942,942,949,943,937,914,894,846,880,817,792,801,808,796,789,798,791,797,801,800,794,796,795,800,803,805,805,803,804,800,801,800,801,803,805,811,806,770,750,749,750,754,752,749,743,743,746,751,758,764,765,765,765,767,766,765,763,769,771,775,773,775,773,775,781,789,798,801,805,805,807,808,807,806,804,807,808,812,812,813,813,821,827,825,816,807,809,811,814,815,820,823,822,822,821,821,823,827,832,834,836,838,838,838,835,831,823,819,819,820,816,811,807,805,802,803,804,803,799,790,785,782,783,783,791,807,826,836,838,839,835,831,827,827,820,810,796,783,776,772,773,771,770,769,772,774,776,777,780,786,793,798,799,802,809,814,813,808,803,800,798,800,806,815,827,834,840,844,842,830,812,798,791,785,774,767,759,757,756,764,771,778,777,770,766,764,765,768,771,782,797,819,828,832,829,827,825,831,834,834,833,832,826,823,827,839,848,853,855,855,856,856,854,853,850,848,846,846,846,844,842,841,841,841,841,841,841,837,834,835,838,843,841,834,826,823,824,822,821,818,814,812,809,811,815,822,826,828,829,830,828,826,824,820,811,796,786,786,794,806,817,820,818,812,804,798,794,794,793,789,787,787,787,783,781,779,779,780,782,784,783,784,784,784,785,786,784,784,785,787,786,787,788,792,792,793,790,788,787,787,791,794,793,791,785,782,781,785,788,788,787,784,783,783,784,783,782,783,785,785,785,786,784,785,786,790,789,788,787,787,789,789,789,788,786,785,786,785,789,789,797,798,802,802,800,800,799,800,801,798,795,795,799,804,802,796,794,803,809,814,806,801,799,796,799,804,806,809,798,802,803,808,810,820,829,829,824,817,814,820,819,833,839,849,838,849,861,890,911,928,954,979,981,982,980,982,984,984,995,1003,1008,1007,998,999,993,998,1001,1000,999,992,983,996,1000,1023,1024,1026,1007,1011,1006,1013,1019,1016,999,1000,1012,1025,1017,1014,1011,1018,1019,1010,1002,1018,1027,1026,1021,1014,1027,1019,1008,1015,1022,1041,1039,1039,1034,1038,1035,1035,1021,1000,997,0,1026,1040,1043,1050,1049,1059,1042,0,0,0
0,916,917,929,955,971,988,956,959,935,934,930,920,910,933,942,915,931,953,943,922,928,938,954,955,958,941,937,935,923,924,933,936,924,926,925,924,927,918,922,923,930,935,931,934,935,939,931,934,940,938,926,914,901,861,798,846,809,795,772,802,793,792,794,791,788,792,796,796,801,801,803,803,806,806,802,799,797,801,801,800,800,803,804,790,760,752,746,750,756,755,751,742,740,743,748,762,771,775,771,767,768,769,767,767,773,777,777,776,779,776,776,777,785,795,802,805,802,804,806,807,806,805,806,808,812,810,810,812,822,829,825,816,808,813,815,820,820,823,824,824,824,824,824,826,828,831,834,837,841,841,841,837,830,822,819,821,822,817,811,808,805,803,802,805,805,803,794,792,792,797,800,815,830,844,847,846,842,837,832,829,831,827,818,805,792,781,774,774,774,775,774,776,776,774,774,777,783,788,789,790,792,802,813,819,816,814,814,815,817,824,832,841,847,852,855,856,855,849,838,825,808,791,778,768,766,765,773,779,781,781,777,774,769,768,770,777,794,814,831,836,837,835,834,833,838,840,837,835,836,835,834,837,844,851,855,857,858,858,860,860,857,854,852,852,850,847,843,840,840,841,841,842,842,842,839,837,837,839,844,846,840,832,826,829,828,825,821,817,816,816,818,822,826,829,830,830,829,826,824,824,824,817,805,799,802,811,820,823,819,815,809,805,801,799,798,797,793,789,786,786,784,783,780,781,781,783,783,784,785,785,786,786,787,785,785,786,787,788,787,788,789,793,793,792,787,787,786,789,790,792,792,790,786,784,786,791,790,789,785,784,783,785,784,784,784,785,786,788,787,786,786,788,790,789,786,784,784,789,790,789,787,783,784,785,787,789,789,791,791,795,799,797,796,793,797,795,796,793,793,797,799,799,796,793,793,796,801,799,793,791,794,799,802,799,797,793,799,802,803,800,804,808,814,814,815,814,816,814,823,825,831,838,854,859,871,860,858,877,920,0,964,976,975,979,990,994,999,1000,995,988,991,1002,1005,1000,996,995,999,995,990,1002,1017,1015,996,1000,1005,1004,1012,1023,1025,1009,1007,1026,1035,1027,1023,1016,1020,1019,1018,1023,1030,1024,1026,1024,1021,999,1003,1007,1014,1021,1037,1048,1039,1033,1036,1053,1034,1014,996,0,1035,1072,1066,0,1027,1045,1054,0,0,1076,0
0,914,920,944,957,973,973,982,976,964,947,927,911,921,922,977,944,934,938,929,930,938,943,949,947,945,940,941,945,937,930,935,932,922,927,933,937,932,928,925,930,933,937,931,934,935,931,923,922,932,925,911,883,902,826,816,766,773,777,810,795,790,784,788,790,791,792,794,795,798,798,801,801,803,803,800,798,797,803,802,801,800,802,802,788,760,753,748,748,751,750,749,743,743,744,752,764,778,783,777,771,769,769,769,770,776,779,779,776,778,777,776,776,780,789,798,803,801,802,806,808,807,805,806,809,811,812,812,817,826,828,821,813,809,815,817,820,821,824,826,827,827,825,825,825,829,832,836,838,841,842,842,837,831,823,822,824,825,819,814,809,806,803,804,807,808,808,803,805,811,819,831,840,849,851,851,847,843,839,834,832,836,833,823,809,799,787,779,774,773,773,776,777,778,774,776,778,783,784,785,784,786,795,809,819,821,822,822,824,828,837,844,848,850,852,855,858,859,858,853,846,836,822,809,798,788,781,779,780,782,783,785,784,781,780,785,796,814,829,840,841,842,841,842,842,846,848,844,839,838,839,841,842,847,848,852,853,855,856,859,860,860,856,853,852,851,848,843,838,838,840,840,841,842,842,842,840,839,839,844,849,845,836,829,829,829,827,823,819,820,821,826,828,829,830,830,828,824,819,821,824,828,824,819,818,821,825,824,819,814,812,812,809,804,801,800,800,798,794,789,787,787,785,784,784,784,785,785,786,786,787,787,787,787,786,787,786,788,788,787,787,789,792,792,788,787,785,786,787,792,794,793,792,788,786,788,791,791,788,784,782,781,782,783,784,784,786,788,790,789,787,787,787,790,788,785,785,786,791,791,788,787,785,789,791,794,793,791,789,789,793,797,797,798,795,796,791,790,788,789,790,794,795,794,793,794,795,795,794,790,790,789,797,797,794,791,791,799,798,802,798,799,794,795,798,805,808,807,807,810,808,813,815,829,837,836,832,832,828,837,892,0,950,956,968,984,993,990,985,983,974,983,992,1007,992,992,997,1004,1000,996,998,1009,998,996,1004,1010,1005,1002,1015,1006,1002,1011,1023,1032,1035,1027,1011,1002,997,1003,1023,1037,1031,1029,1035,1029,1009,1000,999,1008,1018,1023,1032,1034,1042,1048,1048,1040,1008,1004,1011,1042,1049,0,1044,1013,1008,0,0,0,0,0
0,949,0,963,961,952,954,967,962,954,944,937,926,924,949,934,935,934,931,936,938,943,941,945,940,937,940,946,955,946,946,942,950,930,932,942,945,940,930,936,931,938,943,941,934,930,925,919,923,924,916,894,862,884,840,783,774,769,792,813,809,791,782,790,792,791,793,798,801,797,798,799,801,797,797,798,799,800,804,802,802,801,805,807,796,766,752,751,750,748,745,745,745,743,744,751,765,776,783,780,775,770,769,770,773,777,779,779,777,777,776,775,774,776,783,792,800,799,800,804,809,809,808,809,813,812,813,812,820,825,825,817,814,812,816,816,821,825,828,829,829,828,828,828,830,833,836,837,838,839,840,839,835,832,827,825,826,826,821,816,812,810,807,808,810,812,811,812,818,829,839,846,850,852,853,852,848,844,840,837,835,838,838,830,814,804,794,786,777,775,774,779,779,779,775,777,780,783,785,784,784,783,791,806,820,823,825,826,830,835,843,849,850,849,852,855,859,860,861,859,855,850,842,831,819,803,791,784,782,782,784,788,794,795,799,805,816,829,839,844,846,847,848,849,850,854,856,854,849,845,845,844,845,847,847,849,852,855,856,858,861,862,861,858,856,856,853,848,842,841,842,841,839,840,842,842,842,841,842,845,850,847,838,831,830,831,830,826,823,824,827,829,829,828,828,828,826,821,817,819,825,831,831,831,831,830,825,819,812,809,812,817,816,809,802,801,803,802,800,793,789,788,788,788,789,788,789,787,787,787,786,784,783,784,788,789,790,789,789,788,790,791,791,788,786,788,787,787,787,789,793,788,787,783,786,787,791,791,790,785,784,782,784,784,786,785,787,787,789,788,788,788,791,791,790,787,787,788,792,791,789,789,790,792,794,796,796,794,791,790,793,794,792,792,793,794,792,791,790,789,788,789,791,794,795,794,792,790,793,793,793,792,795,796,792,788,790,796,798,797,795,793,793,790,794,802,804,805,803,804,804,806,808,817,814,814,809,804,804,801,822,861,892,912,936,965,977,981,979,976,978,987,994,1003,1006,994,995,1000,997,997,995,996,1001,1003,1006,1006,1006,1004,1005,1004,1010,1016,1023,1031,1030,1026,1008,997,990,1000,1029,1039,1035,1031,1025,1025,1013,1000,1007,1015,1017,1006,1008,1026,0,1045,1028,1034,1032,997,1022,1027,1035,1041,0,0,1018,1052,1064,1056,1045,0
0,967,943,946,973,944,907,937,940,931,931,933,936,937,935,939,923,928,928,940,948,935,933,939,941,941,937,939,946,947,951,958,958,936,925,941,946,930,937,945,939,934,943,947,939,935,931,933,926,920,900,885,853,0,854,794,782,796,801,808,800,789,782,790,791,797,800,800,797,796,800,800,799,794,793,796,801,803,805,804,805,804,805,807,796,769,754,752,749,744,742,743,745,742,744,752,764,774,780,779,778,772,770,770,773,777,778,776,775,774,773,773,775,777,780,785,795,799,802,804,806,808,809,811,814,813,813,815,822,825,822,815,813,814,815,818,822,827,830,832,831,830,829,828,829,832,836,838,836,836,837,835,832,829,828,827,827,825,821,818,816,813,810,810,812,814,814,816,825,838,847,852,852,853,852,852,848,844,841,840,838,839,841,834,819,809,802,795,782,778,776,781,780,780,779,782,784,783,784,783,781,782,788,805,819,824,827,829,834,839,846,849,850,848,851,853,858,859,859,859,856,854,850,845,835,819,803,791,784,783,787,794,802,807,814,822,832,839,845,847,850,851,852,853,857,861,862,861,857,852,848,846,844,846,846,848,851,856,857,859,863,865,865,862,857,856,855,854,848,844,842,840,838,840,841,843,843,842,842,846,850,849,840,832,827,828,827,828,826,827,828,831,831,830,830,829,827,823,820,821,825,829,831,832,830,824,816,810,807,807,811,817,816,809,802,801,804,806,804,798,793,791,791,792,792,792,791,790,791,789,786,782,781,783,789,792,792,790,790,789,792,793,790,787,786,787,786,787,788,792,795,787,784,781,786,789,791,791,790,787,784,782,782,782,784,784,786,787,789,791,790,789,790,790,790,789,791,792,794,792,791,792,795,796,796,796,797,793,788,787,791,791,791,792,793,791,789,788,789,790,789,790,792,794,793,792,790,790,788,789,790,788,790,788,790,788,791,794,794,791,791,792,793,792,792,796,800,802,800,798,796,796,798,804,802,800,792,797,796,796,794,801,820,839,887,0,967,976,980,980,978,989,992,992,1002,1006,997,999,1004,1003,1002,1007,1021,1017,1009,999,995,1001,1000,1015,1006,1016,1023,1028,1021,1016,1006,995,983,1000,1014,1030,1013,1008,1020,1011,1003,1006,1022,1027,1016,999,1006,1042,1046,1035,1048,1065,1027,991,1002,1036,1005,999,999,0,0,0,1033,1028,1027,0
0,958,918,913,950,956,933,914,930,930,924,937,934,935,931,940,953,928,935,940,935,921,927,934,944,948,944,930,934,941,949,952,944,930,933,930,914,916,927,940,932,935,934,940,939,940,939,943,935,922,903,868,841,823,808,793,792,799,802,804,798,794,789,789,789,796,800,797,793,794,798,799,798,792,791,795,800,803,803,804,808,807,809,807,792,770,755,753,748,747,747,743,743,739,745,752,765,770,775,775,778,776,775,774,774,775,777,776,777,776,775,774,777,780,782,781,790,799,804,805,805,807,809,812,815,815,814,816,821,823,821,816,815,816,817,819,824,828,830,831,830,829,829,830,832,834,837,838,837,835,836,834,831,829,829,829,828,826,825,821,819,815,813,813,817,820,820,825,834,846,852,856,856,856,854,852,849,844,842,842,842,840,841,837,827,816,809,801,791,785,784,786,785,782,781,782,785,784,786,784,782,783,789,805,818,826,829,832,839,844,849,849,850,848,853,855,859,860,861,859,856,855,853,851,845,834,816,798,788,786,790,798,808,814,820,827,837,842,848,849,854,854,855,856,861,864,864,863,862,860,856,850,845,845,845,849,852,858,861,862,865,866,867,865,861,859,859,859,855,849,845,843,842,842,845,846,846,845,844,846,848,847,842,834,828,828,830,831,829,829,830,832,832,832,833,831,830,829,826,824,826,829,831,829,825,819,814,810,808,807,812,817,817,810,804,803,808,810,809,803,797,794,794,795,794,793,793,792,793,790,786,781,781,783,789,792,792,788,789,789,793,791,790,788,788,788,787,787,789,793,795,787,784,781,787,789,791,791,792,790,787,784,783,783,784,786,786,786,787,790,791,791,790,788,790,791,793,792,793,792,792,792,795,794,794,795,797,794,790,786,789,789,789,789,790,789,788,789,792,793,792,790,792,791,790,786,787,788,789,788,787,787,787,786,788,787,791,790,789,786,786,791,796,796,797,798,799,796,795,791,788,790,792,798,797,794,795,795,798,792,795,797,800,808,818,882,0,965,980,989,993,992,997,1000,997,1002,1009,1007,1005,991,997,1004,1021,1019,1007,998,991,998,1016,1011,1007,1024,1028,1022,1013,1007,1013,997,991,992,1021,1017,1006,993,1005,1016,1014,1014,1023,1034,1006,1022,1034,1034,1045,1021,1046,1053,1008,996,1000,1015,1009,1004,1019,1042,0,0,0,1032,1031,0
0,919,942,928,949,961,938,929,963,927,927,922,933,922,936,940,952,943,932,925,922,924,930,929,936,940,939,930,932,937,941,938,936,934,933,925,918,919,924,925,925,929,932,940,940,944,944,941,935,927,908,851,825,816,808,799,800,797,801,803,801,797,793,790,789,796,795,792,788,794,797,799,798,796,794,796,799,803,804,807,809,809,809,804,785,764,754,750,746,746,745,742,742,742,747,752,763,768,773,774,777,779,777,774,773,773,776,776,775,775,775,775,778,782,782,782,785,795,802,806,805,806,808,811,814,815,815,818,822,823,822,819,818,819,820,822,826,827,829,829,828,828,827,829,829,831,835,837,836,834,836,835,833,830,829,828,826,825,824,823,820,817,815,818,823,826,826,831,840,849,853,857,858,858,855,854,850,847,844,844,842,840,839,837,829,819,812,806,801,795,794,792,790,786,786,785,786,785,785,785,785,789,792,803,814,828,832,837,844,849,852,852,850,849,853,856,859,860,859,857,854,852,849,847,843,838,821,803,794,794,799,807,816,821,825,831,839,845,850,854,858,857,856,858,863,865,866,865,864,862,858,852,843,841,842,848,852,857,860,862,865,867,868,866,864,862,862,862,860,854,849,848,847,846,847,846,845,845,845,847,848,847,843,836,831,830,831,832,831,830,830,832,833,833,833,832,830,829,827,826,826,828,829,827,822,819,816,815,813,811,813,815,815,810,806,806,809,811,810,806,800,798,797,795,794,793,791,791,793,790,785,782,782,784,788,790,790,789,790,791,793,792,791,789,789,788,786,788,790,795,792,789,787,787,790,790,791,791,792,791,787,785,783,785,786,788,786,786,786,790,791,791,788,787,788,791,793,792,791,791,792,793,795,795,795,796,797,795,791,786,789,791,792,792,791,789,786,789,789,791,789,790,791,790,788,784,786,788,787,786,785,785,787,786,789,788,792,792,787,784,783,790,795,797,795,793,789,790,787,787,783,783,784,788,791,794,796,798,793,792,794,801,799,800,801,814,0,0,964,978,986,988,998,994,997,1005,1018,1011,1002,992,998,1003,1010,1009,1014,1007,1002,1007,1001,1007,1005,1017,1020,1013,1014,1008,990,1010,984,996,1004,1005,1014,1015,1007,1019,1024,1020,1034,1023,1024,1026,1033,1032,1007,1026,1037,1012,1019,1009,989,1031,1020,1036,1028,1040,0,0,0,0,1051,0
0,945,967,960,933,942,943,945,953,933,918,928,927,945,947,950,944,954,930,924,931,944,948,944,944,940,931,929,934,942,938,935,944,951,948,937,942,937,932,925,921,936,939,942,945,951,944,940,931,926,913,906,853,791,800,805,806,800,804,805,809,806,803,797,795,793,789,783,785,795,798,801,800,798,797,798,802,803,804,804,806,808,811,805,782,766,758,755,750,750,744,743,742,745,750,755,762,767,771,776,779,781,777,775,773,772,775,777,778,777,777,778,780,782,785,783,784,789,798,804,807,807,808,810,812,814,815,818,822,821,821,820,821,823,825,825,827,827,827,827,828,827,828,829,832,835,837,837,837,836,837,837,836,834,831,829,826,827,826,825,820,817,817,823,828,830,831,837,844,851,854,857,858,859,856,853,851,850,848,846,844,842,839,836,832,822,814,809,807,802,800,798,797,795,793,794,796,798,796,793,793,793,793,797,810,828,836,842,849,854,857,856,853,852,854,858,860,860,858,855,852,849,845,839,838,834,818,806,802,805,809,816,823,828,830,836,843,849,854,858,862,859,857,858,863,865,866,865,866,865,863,855,846,841,842,847,851,855,858,860,864,866,868,866,866,865,866,866,862,858,855,855,853,850,847,846,845,845,847,848,850,847,845,841,839,837,837,837,835,833,833,834,835,834,834,830,827,825,824,825,826,830,830,827,823,823,824,823,820,815,814,814,816,812,810,808,809,811,812,809,805,802,800,798,797,793,791,791,793,791,786,783,784,786,789,791,792,792,790,790,792,793,793,791,789,788,788,790,791,794,791,790,789,791,792,790,791,792,793,790,788,787,787,788,789,790,788,786,786,789,792,792,790,788,789,792,794,791,790,791,793,794,794,793,793,794,798,798,796,791,790,790,791,790,790,789,788,790,790,790,788,788,790,789,788,785,788,788,789,786,785,785,787,788,790,791,793,792,787,781,780,785,792,794,793,791,790,789,785,787,788,789,785,785,786,788,793,795,795,794,796,801,799,801,798,799,801,810,0,0,972,981,993,989,996,1002,1007,1000,999,994,998,993,996,995,1006,1019,1021,1020,1013,1005,1004,1009,1007,1009,1004,994,1001,1002,995,991,989,1004,1016,1025,1042,1026,1026,1021,1021,1013,1023,1026,1030,1025,1025,999,999,1028,1018,1016,1023,1013,1037,1001,1017,1027,1021,1006,1022,1040,1038,0
0,957,957,964,943,935,941,964,971,926,915,927,930,948,947,933,947,955,943,931,940,948,949,953,947,935,925,928,935,947,946,940,940,949,958,949,955,946,941,932,926,936,943,947,949,949,941,931,923,913,914,912,0,802,806,806,807,801,799,799,803,805,803,800,799,798,791,786,788,796,801,803,801,800,799,801,803,806,806,807,806,809,808,798,772,759,754,756,750,749,744,747,747,750,751,755,759,765,770,777,779,781,776,775,775,774,775,775,778,778,777,777,778,780,782,782,781,783,791,800,806,808,808,809,810,814,816,820,821,820,819,820,824,826,826,826,828,827,829,828,829,828,828,828,831,833,835,837,839,840,840,838,839,836,832,829,825,827,825,826,821,819,821,829,832,833,832,837,843,850,852,856,858,860,856,853,851,851,850,847,845,841,838,836,832,823,816,814,812,807,805,806,809,810,809,813,817,821,816,811,805,801,795,796,807,828,840,848,854,857,857,856,853,852,853,856,858,858,854,852,848,845,838,833,834,827,815,807,810,816,821,826,830,836,837,842,846,851,856,862,864,860,857,858,862,865,867,869,868,867,864,857,848,843,844,847,850,854,856,858,862,866,869,868,867,867,866,867,865,863,859,858,856,853,848,846,846,846,849,851,853,851,850,847,844,841,840,839,840,838,836,834,834,832,831,827,823,821,820,823,826,830,829,827,825,826,824,823,820,816,814,815,816,815,813,810,809,810,812,811,811,809,806,802,800,795,792,791,793,792,788,786,787,791,793,794,794,795,792,791,792,794,794,792,789,789,790,792,793,795,790,791,791,794,794,793,795,795,795,791,788,788,788,790,790,789,789,787,788,789,792,793,791,789,790,792,794,793,791,793,793,796,795,794,792,793,796,798,798,795,793,792,792,791,789,789,789,790,788,787,786,787,789,789,789,788,790,790,789,784,783,785,789,791,793,793,792,788,785,779,779,783,789,789,787,789,790,792,788,790,789,790,786,786,786,787,787,790,792,796,795,799,798,802,801,798,794,795,821,896,0,964,983,984,991,990,996,987,994,998,998,992,992,997,1008,1015,1021,1028,1027,1017,1008,1003,1003,1005,1005,1004,1011,1009,1008,994,998,999,1009,1031,1049,1048,1018,1039,1025,1014,1026,1022,1021,1038,1031,1027,1031,1024,1031,1027,1026,1034,1028,1022,1014,1009,1017,1006,1016,1030,1018,0
0,951,948,930,941,933,949,970,963,927,917,933,947,935,929,934,955,957,954,939,943,944,949,951,949,928,924,931,942,951,954,938,936,936,942,948,952,936,941,934,931,937,944,946,946,944,931,924,920,917,912,909,850,0,800,802,805,805,800,799,801,805,801,799,799,801,799,794,792,796,801,804,802,801,800,802,802,803,803,805,805,807,804,791,765,760,758,756,748,745,745,750,751,752,753,756,760,765,768,776,779,782,778,778,780,777,775,774,779,782,780,777,779,782,785,781,780,780,787,794,802,807,807,807,809,813,817,819,820,819,819,821,825,828,830,829,828,827,829,831,832,830,830,831,833,834,835,836,840,842,843,841,840,838,833,830,828,828,827,826,823,821,825,830,833,832,833,838,845,851,854,856,858,858,857,853,852,851,851,848,845,839,836,836,835,830,822,818,817,814,814,817,824,828,829,835,840,844,841,835,825,812,799,795,805,826,846,855,859,861,859,858,856,853,854,856,857,856,853,850,845,840,834,832,833,823,815,812,819,827,830,834,836,839,842,845,849,853,858,863,864,860,858,859,862,866,867,869,868,869,868,862,855,850,848,848,850,856,857,859,863,867,871,871,871,870,869,870,869,865,861,861,860,856,850,846,848,849,853,854,856,855,855,854,851,847,845,845,847,845,841,838,837,835,831,825,821,818,818,820,824,828,828,826,823,821,818,817,817,817,816,818,818,818,817,815,814,814,818,818,820,819,817,814,811,804,799,798,800,800,796,794,795,798,799,800,800,799,797,794,794,794,795,793,792,793,794,794,794,793,792,793,794,795,795,793,796,796,794,790,788,789,789,790,790,791,793,792,792,791,793,793,793,790,791,791,791,791,791,794,794,794,792,792,791,793,796,799,801,797,793,791,790,790,789,791,792,792,792,791,791,789,791,792,793,790,791,790,790,786,785,786,789,790,793,793,792,786,783,778,780,781,786,785,787,790,793,793,790,790,789,789,786,786,782,783,785,792,794,794,791,793,795,799,800,797,796,793,802,819,898,0,978,987,985,990,998,989,991,988,993,983,987,997,1005,1012,1014,1015,1022,1018,1013,1011,1012,1009,1008,1007,1011,1012,1016,1016,1012,1006,1007,1018,1044,1042,1045,1033,1028,1034,1025,1014,1025,1040,1041,1037,1037,1037,1030,1025,1034,1038,1046,1027,1027,1014,1005,990,1017,1012,1017,0
0,952,941,937,920,928,941,960,951,925,920,943,948,934,925,935,946,948,936,935,930,949,944,945,938,929,925,932,938,952,945,940,931,934,940,938,937,934,934,929,928,937,943,942,941,940,931,926,920,918,907,892,813,804,799,803,804,804,800,799,800,805,800,802,798,802,802,799,796,794,798,799,801,802,803,804,803,803,804,810,808,810,802,784,764,758,754,753,746,743,741,743,747,750,754,758,760,763,766,773,776,781,780,783,787,785,777,773,775,783,782,778,776,779,783,782,781,780,781,787,796,805,809,810,811,813,816,819,819,820,820,823,827,830,830,829,828,828,831,833,833,832,831,832,832,831,833,835,839,842,842,842,839,838,833,831,829,828,828,827,825,823,826,830,833,832,833,838,846,851,855,857,858,858,857,855,853,850,850,847,843,839,837,838,838,835,828,827,830,833,834,837,842,846,848,852,853,854,851,850,842,832,815,805,809,829,852,862,865,863,861,859,855,853,852,855,857,855,851,848,844,840,834,835,832,822,818,820,828,834,834,838,838,843,844,847,852,856,861,864,865,862,859,860,862,865,866,870,869,868,868,864,859,853,850,851,851,855,858,861,865,868,871,873,874,874,873,874,873,871,866,866,864,862,855,850,850,853,856,857,859,860,860,860,856,853,850,851,853,852,847,843,839,835,828,824,820,820,820,820,823,826,827,824,820,816,813,813,813,816,819,822,821,822,822,822,822,823,826,826,829,830,832,829,826,820,814,811,811,811,809,808,807,808,808,808,807,805,804,802,801,800,800,799,798,799,799,800,801,798,796,794,796,796,797,795,798,797,795,792,790,790,789,790,792,796,798,798,797,795,795,794,795,792,792,792,791,792,791,794,792,792,790,793,792,793,796,799,802,798,795,792,791,791,792,795,797,795,793,793,794,792,791,792,793,792,793,792,792,789,788,786,787,789,793,793,792,787,786,783,782,782,786,788,790,792,794,794,791,789,787,788,789,789,787,788,790,790,790,788,790,794,795,798,800,802,800,800,797,799,828,0,986,985,985,993,1002,991,987,985,996,991,986,999,1008,1010,1009,1015,1011,1012,1013,1021,1026,1028,1023,1008,1008,1006,1011,1018,1020,1011,1010,1018,1010,1025,1028,1025,1030,1032,1021,1008,1021,1044,1039,1036,1032,1032,1027,1011,1022,1037,1040,1038,1026,1049,1029,995,1004,991,1018,0
0,958,957,947,946,928,935,954,945,933,927,950,955,941,927,933,941,936,921,910,934,943,941,943,938,941,930,928,930,939,942,934,921,929,938,943,943,935,930,919,927,933,933,934,934,940,941,938,928,923,914,879,781,785,798,801,804,803,803,803,802,805,803,799,792,795,798,797,795,796,799,798,800,802,804,803,802,803,804,808,808,808,791,767,758,760,758,755,750,745,740,737,740,745,755,762,762,762,762,771,775,779,781,786,791,792,782,777,776,783,786,784,781,780,783,783,785,783,782,778,783,791,807,812,814,814,815,817,818,820,820,823,827,830,831,830,828,830,831,834,833,835,835,835,835,832,834,835,838,841,841,842,839,837,834,833,833,831,829,827,826,824,825,826,827,828,832,838,845,851,855,858,859,859,860,858,855,849,848,846,845,843,841,842,842,840,835,835,842,848,851,855,857,860,859,859,857,856,856,856,854,850,837,824,824,840,860,867,868,865,863,861,857,854,854,856,855,853,850,848,845,841,837,839,833,827,825,831,835,839,839,842,841,844,846,850,856,861,864,868,868,865,862,863,864,866,867,870,869,869,870,868,863,857,854,853,854,857,859,861,864,868,872,875,877,878,878,878,877,874,873,874,873,870,864,858,856,858,860,862,864,866,867,867,863,859,857,859,860,860,856,851,847,840,834,830,827,826,826,826,828,830,830,827,823,819,816,813,815,819,823,825,825,826,828,830,833,834,836,836,840,841,844,842,839,836,830,827,826,825,823,821,820,818,817,816,817,817,817,815,815,814,813,812,813,813,813,813,814,807,802,797,799,799,800,797,798,796,795,793,793,792,792,793,798,803,806,804,802,799,798,797,798,795,793,792,793,794,793,793,790,790,791,794,794,794,798,801,803,797,795,792,793,792,796,797,800,797,796,794,796,793,793,794,794,793,792,792,792,792,792,790,788,788,792,792,794,791,792,788,786,784,786,788,791,792,795,793,791,790,789,791,790,788,788,790,793,789,788,786,791,796,797,799,799,803,804,805,799,796,814,0,976,988,986,997,1007,996,996,993,1005,993,989,992,1003,1009,1012,1015,1009,1003,1004,1009,1019,1028,1022,1013,1004,1003,1010,1017,1016,1010,1010,1007,1003,1001,1017,1023,1027,1027,1013,1015,1026,1038,1031,1025,1024,1029,1016,1007,1010,1021,1035,1042,1040,1036,1053,1042,0,1005,1015,0
0,952,962,962,953,941,933,939,941,939,934,942,944,941,935,930,933,930,919,932,919,928,926,931,934,927,922,931,929,936,939,940,927,930,939,943,944,939,931,921,920,927,934,938,939,942,943,940,929,922,912,0,794,786,797,800,803,805,807,803,803,807,803,798,792,797,797,795,793,795,799,797,799,801,803,803,803,803,806,809,813,810,781,756,754,762,759,757,751,746,739,734,735,742,755,765,764,761,761,770,774,780,781,788,794,798,790,779,776,779,785,785,782,781,780,782,784,784,779,774,776,783,802,814,817,817,815,815,817,820,821,822,825,828,829,828,828,832,834,837,835,836,837,836,836,833,834,835,837,839,839,840,838,837,835,834,834,832,830,829,829,826,823,821,821,824,829,836,843,849,854,857,859,860,860,859,856,851,848,847,849,849,846,846,845,844,839,842,850,857,860,863,865,865,864,861,860,858,859,859,859,859,856,850,849,856,867,871,871,867,864,862,856,854,852,855,854,852,849,846,845,844,842,843,837,835,834,839,838,838,838,842,843,846,847,852,858,864,868,870,870,866,863,863,865,866,867,871,871,870,871,871,867,861,858,856,856,857,859,861,864,868,870,875,877,878,878,878,879,878,878,878,878,878,874,869,867,866,867,868,870,871,872,872,868,865,863,863,864,865,863,858,853,845,840,839,837,837,836,839,841,840,837,833,832,830,827,821,822,824,829,831,832,834,836,839,842,842,844,845,848,849,851,849,847,844,841,837,835,834,832,830,829,828,826,825,826,827,829,830,831,832,831,830,829,828,826,827,828,819,809,802,801,800,799,796,797,791,791,790,794,793,793,797,804,808,810,809,808,806,805,803,801,801,800,799,798,798,796,794,793,794,795,796,796,796,800,803,804,799,795,792,792,793,796,799,803,801,799,795,795,793,791,792,793,794,792,792,791,793,793,792,790,789,792,792,794,794,795,793,789,788,787,790,792,793,794,793,792,790,788,790,789,789,790,791,791,787,789,790,796,799,799,800,800,803,804,805,798,795,809,886,965,976,993,994,995,993,1000,1002,1004,999,1001,1002,1006,1008,1010,1011,1013,1013,1004,999,1004,1024,1031,1024,1008,1006,1004,1018,1011,1009,1000,1005,1004,1014,1028,1030,1031,1037,1025,1024,1010,1023,1023,1017,1019,1025,1022,1014,1014,1019,1038,1041,1033,1038,1044,1048,1040,0,0,0
0,953,950,966,951,942,938,939,933,943,942,933,930,924,923,916,921,933,941,938,927,926,927,924,916,915,912,922,937,927,943,944,929,930,934,934,936,934,936,922,923,928,932,938,932,935,936,935,927,918,904,875,832,799,795,796,801,804,802,797,798,803,798,794,794,799,798,796,795,797,800,800,801,800,801,801,802,801,804,807,811,807,772,755,750,758,759,757,749,741,739,737,737,743,755,765,766,761,760,767,773,779,780,788,796,802,799,785,779,778,784,787,789,788,786,783,785,784,782,776,776,782,799,813,819,820,817,815,817,818,820,820,823,826,828,829,831,835,837,839,836,836,838,837,836,834,837,837,838,840,840,840,838,837,836,834,834,833,832,831,831,829,826,823,822,824,829,836,843,849,855,858,860,861,860,858,856,851,850,850,853,852,849,848,848,847,842,844,849,856,860,864,868,868,869,865,865,862,862,860,861,863,865,865,866,868,870,870,870,868,863,860,856,855,853,853,853,850,849,846,844,841,843,846,844,842,841,843,842,842,844,847,847,848,849,853,860,867,871,873,872,867,865,866,869,869,870,871,873,872,874,873,870,864,861,858,858,858,860,861,863,867,870,874,876,878,878,879,881,881,881,880,882,883,882,879,877,876,876,876,876,875,875,876,875,872,869,868,867,868,868,865,860,853,851,849,849,848,849,852,855,852,845,839,841,842,841,834,834,835,839,840,841,844,845,847,848,849,852,853,854,853,853,852,851,847,846,843,841,839,837,835,834,834,833,832,834,837,839,840,842,844,845,844,843,842,840,838,837,827,815,806,804,801,799,796,797,791,791,790,794,794,798,803,810,812,813,811,812,811,812,811,808,805,803,802,803,801,799,796,798,801,802,802,800,800,803,806,805,798,793,792,793,795,797,799,804,806,804,799,794,792,791,792,793,793,791,792,791,794,795,795,793,792,795,795,795,795,796,797,794,794,791,792,792,792,793,791,791,790,789,789,788,790,791,791,788,786,790,797,801,802,802,800,797,796,798,798,794,794,807,0,926,983,994,991,989,995,1005,1006,1002,998,1004,1007,1007,998,1003,1005,1018,1016,1003,995,1005,1022,1027,1024,1014,996,1007,1011,1010,1002,996,1006,1012,1025,1031,1034,1037,1031,1037,1018,1015,1007,1016,1027,1024,1029,1026,1028,1026,1036,1034,1024,1023,0,1038,1039,1034,0,0,0
0,954,959,937,935,931,933,940,942,941,945,941,930,926,920,925,920,927,934,935,928,931,922,914,913,914,919,921,920,930,933,936,935,929,935,931,931,928,934,931,927,930,938,943,936,930,927,927,924,919,897,868,852,804,796,798,801,805,797,793,795,799,795,796,797,803,798,798,797,797,797,798,802,801,801,800,802,803,806,806,809,797,770,761,759,762,761,754,745,738,738,737,735,741,750,762,767,764,762,766,772,779,780,790,799,805,802,790,779,777,780,787,790,791,788,786,785,784,781,782,783,790,801,814,821,822,819,817,818,820,821,821,822,824,827,829,831,835,838,838,836,834,837,836,837,836,838,839,839,840,842,843,841,838,836,835,834,833,832,832,833,832,829,826,826,828,832,837,843,851,857,860,861,862,862,860,857,854,853,854,854,851,846,847,848,849,845,846,849,855,859,863,866,867,869,868,868,868,867,864,863,864,867,871,873,875,873,872,870,869,865,861,857,855,853,853,852,850,848,845,843,842,845,849,848,846,846,846,844,845,845,849,848,850,851,854,861,868,872,874,871,867,865,866,870,869,870,871,872,871,873,874,873,868,865,861,859,859,860,863,864,866,869,872,875,876,877,879,882,882,881,881,883,885,884,883,882,881,882,880,878,876,875,876,875,874,872,869,867,868,869,867,864,859,857,855,856,857,858,861,862,858,848,839,842,848,851,848,847,848,849,849,849,851,851,852,851,854,856,856,855,854,854,853,853,850,851,848,846,843,840,838,838,839,839,838,838,840,841,843,845,847,848,849,848,847,843,840,837,828,816,808,804,800,798,796,797,792,792,791,794,796,803,810,814,814,814,814,815,816,819,820,816,811,808,808,806,804,802,803,807,812,812,809,806,806,809,811,808,800,794,793,792,796,798,800,804,809,807,803,796,794,793,793,795,795,794,793,792,795,795,795,794,793,797,796,795,795,796,798,796,796,794,795,795,794,792,790,789,789,789,791,791,793,794,794,792,793,795,801,802,803,801,796,793,791,792,793,792,795,807,846,915,974,987,988,987,996,995,1000,998,1005,1006,1008,1009,998,999,997,1007,1001,1000,997,1009,1021,1022,1026,1014,1009,999,1010,1005,1007,1003,1009,1012,1019,1025,1019,1025,1026,1021,1013,999,1001,1005,1025,1019,1019,1030,1022,1033,1030,1016,1022,1011,1019,1025,1023,1030,1048,1041,0
0,935,933,917,921,918,939,936,934,933,934,939,938,926,920,925,922,926,934,934,929,928,923,924,909,915,917,917,920,926,934,923,924,926,928,931,929,930,939,939,934,929,935,937,929,926,919,920,927,924,909,866,847,801,796,797,799,799,795,792,794,797,796,796,796,799,798,797,800,801,802,801,802,802,803,803,803,803,805,806,803,784,762,760,761,761,758,750,742,737,738,738,736,740,747,758,767,765,764,765,772,778,785,795,802,805,803,795,783,778,780,787,791,793,793,791,789,785,785,788,793,800,806,814,820,822,821,820,820,819,820,821,823,824,827,829,832,835,837,836,835,834,836,837,838,838,838,839,839,840,843,843,842,839,838,838,836,833,832,833,834,833,833,832,835,837,841,844,849,855,860,861,860,860,861,860,857,853,855,856,857,853,849,848,850,849,847,847,850,855,860,864,867,869,870,871,871,871,871,869,868,869,871,876,878,880,877,873,870,868,864,861,858,856,855,852,851,849,848,846,845,845,850,852,851,848,846,847,848,850,850,851,851,851,852,855,862,868,872,874,871,869,868,869,872,870,871,870,873,873,875,876,876,872,869,865,862,862,863,865,865,866,868,871,875,876,877,879,881,882,883,883,883,884,884,883,882,882,882,881,878,875,875,875,876,875,873,871,869,869,869,868,866,864,862,861,862,863,864,864,865,861,853,842,844,851,858,859,860,859,858,857,857,858,858,859,858,860,859,857,854,854,856,856,854,853,854,853,852,849,847,845,844,845,844,842,840,840,840,840,842,843,846,845,845,842,838,834,833,827,819,810,806,802,801,799,799,797,797,796,798,800,810,815,816,812,813,814,817,819,825,825,823,815,812,810,808,806,806,809,815,819,820,819,817,816,819,818,812,802,797,797,798,799,801,802,805,809,809,804,798,796,796,797,798,798,797,797,795,797,795,796,797,797,800,797,796,795,797,798,797,797,796,796,795,794,794,792,791,792,794,796,797,797,798,798,797,795,795,797,799,800,799,795,792,789,790,791,794,799,807,836,905,964,982,986,991,998,994,992,1000,997,997,999,1002,1000,999,995,996,993,997,1006,1009,1010,1018,1019,1010,1005,1010,1014,1012,1013,1007,1007,1010,1011,1007,1004,1005,1008,1007,995,989,993,1012,1018,1011,1013,1032,1031,1030,1021,1035,1032,1020,1033,1028,1009,1032,1017,1009,0
0,919,914,917,915,925,917,910,924,930,938,939,943,938,926,921,918,937,935,933,931,928,926,920,919,917,926,930,926,928,931,922,915,918,922,928,934,940,948,939,925,927,929,935,938,936,928,926,935,932,917,882,828,804,793,797,802,804,805,798,799,798,804,800,801,798,795,795,798,801,802,802,802,803,803,804,805,807,809,809,804,781,764,761,761,759,752,744,739,736,736,737,736,739,744,754,764,765,765,766,770,779,788,800,804,807,805,799,786,779,778,783,787,791,792,792,790,786,784,787,792,801,806,813,818,822,823,824,823,822,821,821,822,824,826,829,832,833,834,834,834,833,836,839,839,838,836,836,836,838,843,844,842,837,836,837,836,834,832,833,834,833,832,833,837,840,843,848,852,857,861,862,861,860,861,861,858,855,855,856,855,852,848,847,848,849,848,848,852,856,860,863,866,869,870,872,872,874,875,875,874,875,877,881,881,881,878,875,870,868,864,861,858,857,854,851,849,849,848,848,849,853,856,857,855,852,848,847,847,850,849,850,850,853,856,860,866,870,873,873,872,871,869,870,872,872,873,873,875,874,876,878,878,875,871,868,866,866,865,866,865,865,866,869,872,875,877,879,880,881,881,882,882,882,881,881,881,881,880,879,877,875,873,872,873,873,873,872,870,869,868,869,869,867,865,862,862,863,863,864,866,863,857,848,850,856,863,865,865,865,864,863,862,862,860,861,860,861,859,858,856,857,859,859,857,856,857,857,856,856,855,855,854,854,852,848,844,840,840,839,839,838,839,839,838,835,831,828,829,828,822,813,809,805,803,802,802,800,800,800,805,808,814,816,813,812,813,817,820,824,828,830,827,821,816,814,811,811,812,817,820,823,825,828,826,827,830,827,820,810,804,803,803,805,806,806,809,811,811,807,802,800,800,803,804,806,804,803,801,801,800,803,803,803,802,799,798,796,796,796,796,795,796,795,796,795,795,793,793,794,796,798,799,800,799,799,798,797,794,795,795,796,794,793,790,789,789,793,795,799,803,822,889,0,989,995,994,996,996,997,996,997,994,995,1003,1007,1004,996,993,995,1007,1010,1012,1010,1015,1021,1004,1008,1020,1022,1015,1006,1004,1001,1005,1006,1002,997,1004,1010,1003,988,989,1018,1010,1015,1022,1022,1031,1034,1037,1027,1032,1039,1032,1030,1024,1014,0,1012,1003,0
0,930,926,929,938,918,916,913,921,931,944,941,936,933,924,913,926,932,934,932,934,934,932,927,918,928,944,928,933,930,938,923,911,907,924,928,938,943,936,924,925,923,929,931,934,933,930,934,936,934,924,901,867,801,795,795,800,803,805,803,805,806,811,808,805,799,797,796,798,800,803,802,802,801,802,804,804,806,808,811,803,782,770,764,758,747,743,740,739,735,734,735,738,742,746,754,763,767,768,768,771,780,792,806,809,809,805,799,790,782,777,778,782,790,794,793,793,790,786,786,789,798,804,809,813,819,823,826,826,823,822,821,823,825,828,831,833,833,834,834,836,837,839,841,841,838,836,834,834,835,838,841,841,839,839,840,839,836,834,834,833,831,831,835,840,843,845,849,853,858,863,865,863,861,861,862,860,856,855,857,857,854,851,850,851,852,851,850,853,857,860,863,867,870,871,873,875,876,876,877,878,879,882,884,884,882,880,878,874,870,865,859,857,854,853,850,849,849,850,853,855,859,860,861,858,854,850,849,850,852,851,851,850,853,858,864,870,873,875,874,874,873,874,873,874,873,875,874,877,878,881,881,881,878,874,871,869,868,867,866,865,865,865,867,870,874,877,878,878,879,879,880,880,879,880,881,882,881,880,879,878,875,873,872,873,873,874,873,872,870,868,869,868,868,865,863,862,861,863,865,869,866,864,859,861,864,868,870,869,867,865,864,865,866,865,864,863,863,862,862,862,862,863,862,861,859,861,862,863,863,864,863,863,862,861,857,851,846,844,841,840,838,837,834,833,831,828,827,831,833,826,816,811,809,808,807,808,805,806,807,812,814,816,815,813,813,817,821,824,826,830,831,830,824,821,818,816,816,817,820,822,825,828,831,832,834,836,833,824,815,812,810,809,810,810,809,813,816,815,809,804,803,803,806,808,810,811,811,808,807,806,810,810,809,807,803,800,798,798,797,796,795,797,795,796,795,794,794,795,798,798,799,798,802,803,803,798,793,793,794,793,790,789,792,792,792,791,792,793,795,797,809,847,0,995,998,991,991,1000,997,999,995,1000,997,999,1008,1005,999,994,1006,1015,1014,1012,1007,1014,1013,1011,1010,1025,1028,1013,996,996,998,1005,996,999,1005,1018,1020,1009,1003,1020,1004,1024,1023,1034,1025,1025,1015,1015,1023,1022,1024,1029,1033,1030,1007,1012,1019,1030,0
0,935,934,934,932,921,915,921,929,934,945,943,936,929,925,917,927,928,929,928,932,932,932,932,924,920,926,933,937,936,935,919,912,917,926,937,939,936,929,918,919,919,925,932,932,930,930,936,935,928,920,903,848,814,802,802,804,804,803,800,803,802,806,807,810,803,798,798,799,799,800,801,802,803,803,804,805,808,812,812,800,781,772,769,759,746,739,737,738,735,735,735,737,741,745,752,760,767,769,771,772,779,791,807,812,812,806,803,795,786,777,774,776,782,790,793,793,794,788,786,787,795,801,807,810,818,822,827,827,827,824,822,821,823,827,830,832,832,833,834,836,837,839,840,841,840,839,837,834,834,837,842,842,841,839,839,840,840,838,837,834,834,833,837,839,841,843,848,851,857,861,865,863,863,863,864,862,859,857,858,856,854,851,851,852,854,854,853,854,858,861,864,866,870,871,873,875,876,877,878,880,881,883,885,885,883,881,879,876,874,868,860,854,851,850,849,849,852,855,860,861,863,862,862,858,856,853,852,851,852,852,852,853,856,862,867,872,875,877,877,876,875,875,875,875,875,876,876,878,880,881,882,882,880,876,873,870,869,867,866,864,865,866,867,868,872,874,877,877,878,878,880,881,880,880,881,882,881,881,881,879,876,873,873,875,875,875,874,874,871,868,869,868,869,865,863,861,861,864,867,871,869,867,866,869,870,871,871,869,868,866,865,865,865,865,864,862,862,861,863,864,865,865,865,863,863,865,867,868,867,867,867,867,866,867,864,860,855,851,848,844,841,838,836,835,836,835,836,841,842,833,820,815,813,813,813,814,813,812,814,817,819,817,816,816,818,821,824,823,824,827,830,830,828,824,822,819,821,820,822,823,826,829,831,832,837,839,835,825,817,815,815,813,813,811,809,813,817,818,812,807,806,806,810,811,814,815,816,814,813,812,814,814,813,810,807,802,800,798,799,800,799,799,798,798,796,794,793,794,798,797,798,796,803,805,806,798,794,793,797,793,789,787,786,790,792,793,793,792,794,794,801,825,0,985,993,989,989,995,995,1001,1005,1007,1004,1003,1009,1010,1003,995,1002,1010,1009,1006,1003,1005,1009,1011,1015,1021,1016,1008,987,989,1001,1008,998,1003,1013,1025,1029,1023,1022,1011,1001,1001,1028,1026,1020,1021,1005,999,1006,1016,1022,1028,1023,1027,1023,1021,1030,1024,0
0,926,931,933,934,920,920,924,930,916,932,933,931,925,926,927,933,929,920,917,922,925,929,936,926,922,922,925,936,935,938,927,925,918,925,930,930,933,930,929,919,921,919,924,927,929,927,936,932,926,918,901,869,815,805,806,804,805,803,803,801,800,800,805,806,805,802,803,801,799,800,801,804,803,804,804,805,807,810,805,788,772,768,761,754,745,741,740,740,738,737,737,737,739,743,751,761,768,771,773,774,781,793,807,812,810,805,803,798,791,781,775,774,779,786,794,794,796,791,789,787,792,798,804,808,816,821,825,828,828,827,825,823,824,826,828,830,830,832,834,837,840,840,840,840,841,842,842,838,838,840,845,847,846,844,842,842,842,840,838,836,836,836,838,838,839,844,851,855,861,864,867,865,865,866,867,864,861,860,861,859,856,854,853,854,856,855,854,855,858,861,864,866,870,871,873,874,876,877,879,881,883,885,886,888,886,884,881,878,877,872,863,855,850,851,852,853,856,862,867,868,866,865,863,859,856,856,856,854,853,854,855,856,857,862,868,874,877,879,879,878,877,877,879,878,876,876,876,878,879,881,883,884,883,879,874,872,870,868,866,864,867,869,870,871,873,874,875,877,878,879,882,884,884,883,882,883,882,883,884,882,877,875,875,878,876,875,875,876,874,870,869,869,869,867,866,866,865,868,870,873,871,871,871,873,872,871,870,870,869,868,866,865,865,868,867,865,863,862,862,864,866,868,867,869,868,871,871,871,868,868,867,869,870,871,869,866,864,861,859,855,851,847,845,844,846,847,848,852,850,838,823,817,817,818,818,818,817,817,819,819,819,819,819,819,821,823,822,820,820,823,827,830,830,829,826,823,823,822,824,825,829,830,831,833,838,839,833,822,816,816,817,815,812,809,807,812,816,818,812,808,806,806,808,811,813,815,816,816,816,814,815,815,816,812,810,806,804,803,803,804,802,802,801,801,799,798,796,797,800,799,799,798,805,810,809,801,796,796,797,792,786,785,785,789,790,791,792,794,795,795,798,815,0,965,984,985,989,987,997,1001,1008,1006,1002,1002,1009,1010,1009,1001,1007,1011,1005,999,1000,1007,1008,1010,1011,1009,1005,1000,983,991,1009,1024,1009,1008,1010,1015,1021,1026,1024,1013,1002,996,1004,1013,1014,1008,996,989,1021,1016,1017,1016,1022,1016,1021,1030,1018,1013,0
0,930,926,924,930,934,928,930,938,931,949,934,922,914,917,926,942,932,924,916,917,924,925,926,923,925,929,929,929,929,933,927,923,927,928,929,927,934,938,936,930,921,914,915,924,933,936,936,937,930,919,905,879,810,813,808,806,805,806,804,800,798,797,802,802,804,805,806,803,801,800,803,804,806,805,806,807,809,810,798,779,768,759,756,750,744,741,740,740,739,739,738,737,737,741,749,761,768,769,771,776,784,795,805,810,807,804,804,799,792,784,777,774,775,780,788,791,796,793,792,788,790,793,801,807,814,818,822,826,829,829,827,825,825,826,828,829,830,833,836,838,838,838,839,840,842,844,844,841,842,845,849,849,847,843,842,841,842,840,840,838,839,839,839,837,839,846,856,859,861,863,868,867,867,866,867,865,863,862,862,860,857,855,854,855,857,856,856,857,860,863,865,866,868,870,872,873,875,875,878,881,885,886,888,889,888,885,882,879,878,875,868,861,858,857,858,859,863,868,872,872,870,868,866,862,859,857,857,855,854,856,858,860,860,865,869,874,877,880,881,879,877,877,880,882,880,878,877,879,880,882,883,885,885,882,877,874,872,869,866,865,870,871,872,872,875,876,878,878,879,881,884,886,886,884,884,883,884,885,886,884,880,875,875,876,876,874,875,876,876,872,871,871,872,870,869,867,867,867,870,873,874,874,874,875,873,872,871,871,871,871,869,866,865,868,868,866,865,863,863,864,867,870,871,872,872,874,873,872,869,869,869,870,872,872,871,868,867,867,866,862,859,856,854,853,855,856,858,861,858,843,828,821,821,821,821,820,820,819,821,820,820,819,820,819,819,818,818,816,818,822,825,827,828,828,827,824,824,824,828,828,831,831,833,836,842,842,835,823,814,813,814,812,811,808,807,809,812,815,813,809,807,806,808,810,813,814,815,815,817,816,817,818,819,815,811,808,807,807,807,808,806,806,806,807,805,803,799,799,801,802,802,803,808,810,806,799,797,796,796,793,791,791,791,792,789,789,791,794,794,793,795,808,869,939,969,977,986,988,993,994,995,997,1000,1005,1004,1004,1003,1009,1008,1007,1001,999,1006,1009,1007,1005,1005,998,994,992,985,990,1011,1026,1014,1006,1002,1004,1007,1015,1021,1017,1014,999,999,1007,1018,1014,1012,1013,1041,1040,1029,1015,1003,1005,1021,1015,1009,998,0
0,935,928,923,941,949,944,935,938,945,931,933,921,912,918,936,943,936,927,913,919,920,920,921,916,927,924,928,925,925,926,924,924,924,926,923,922,931,936,942,935,929,917,915,922,934,937,935,934,930,921,904,879,856,818,805,802,803,807,804,801,800,803,802,802,803,804,803,802,802,802,804,805,806,804,805,807,809,806,792,776,771,763,754,746,742,740,739,740,739,738,738,738,738,742,748,762,768,768,768,778,791,803,807,809,807,805,805,801,794,786,782,778,778,779,785,791,794,795,795,791,788,788,794,804,812,817,821,826,830,832,829,827,828,828,830,830,831,834,836,838,840,841,841,842,843,843,843,843,846,850,853,851,847,844,843,842,841,841,841,841,841,841,840,839,842,852,860,865,866,868,871,870,870,868,869,867,865,864,863,863,859,857,855,858,859,860,857,858,862,865,866,865,867,870,872,872,874,876,879,882,885,887,889,890,889,886,882,880,879,877,874,870,868,867,868,868,870,873,876,876,873,872,870,868,862,859,859,858,857,859,862,864,864,867,871,877,881,883,883,881,879,880,881,884,883,882,882,881,881,883,885,887,886,884,881,877,875,873,872,870,872,873,874,875,878,879,880,881,880,882,884,887,887,885,884,884,886,887,887,887,883,880,878,877,877,875,876,876,878,876,875,875,876,875,874,873,871,869,870,874,877,877,876,877,876,876,874,875,874,873,869,867,867,870,870,871,871,871,870,869,868,871,871,874,873,874,874,874,873,873,872,873,874,875,873,872,872,872,871,868,865,863,862,860,861,862,864,865,860,845,830,824,825,825,825,824,822,821,822,821,821,819,817,816,815,815,815,816,818,822,824,826,826,827,828,827,828,830,833,833,833,833,835,840,846,847,839,826,816,812,811,809,809,807,807,808,812,814,813,810,808,808,808,810,812,814,813,816,818,820,819,818,818,817,814,813,812,812,812,811,809,809,809,812,810,807,804,803,802,805,806,810,813,812,806,798,796,795,794,792,790,791,792,790,786,785,787,792,789,788,788,800,839,0,960,971,982,986,993,992,991,991,998,1005,998,994,997,1007,1007,1001,999,1007,1008,1010,1010,1009,1005,999,994,992,984,984,1000,1012,1004,1007,1009,1000,991,1002,1009,1015,1021,1015,1008,1009,1012,1010,1011,1019,1033,1047,1030,1012,1004,995,1013,1025,1010,1012,0
0,942,931,922,931,945,944,939,945,936,929,927,924,919,924,924,927,924,934,922,919,915,920,925,928,923,920,926,927,926,917,918,920,928,929,929,924,924,929,938,932,927,920,919,923,930,931,925,923,926,923,916,897,0,854,804,800,799,802,801,802,806,808,806,803,805,804,802,800,802,801,805,806,808,807,808,809,810,804,790,778,772,760,749,743,739,739,739,740,738,738,738,740,741,743,748,759,768,769,769,780,794,806,808,809,808,807,807,801,794,785,782,780,778,778,782,787,794,795,797,794,790,788,792,801,809,815,820,825,829,833,832,831,831,830,832,830,833,834,838,838,839,840,841,842,844,842,842,842,847,849,852,849,847,844,844,843,843,844,845,843,843,842,841,840,845,854,862,865,867,868,870,869,870,870,871,870,868,865,865,865,861,858,857,860,861,861,859,859,862,866,866,866,866,868,871,871,872,874,878,882,885,888,889,888,887,884,881,879,878,878,877,878,878,876,874,873,875,878,880,878,875,872,871,868,865,860,860,858,859,859,864,866,867,869,872,878,881,882,882,880,879,880,882,884,885,885,885,884,885,886,888,888,888,886,884,879,877,876,876,876,875,875,876,877,879,880,881,881,881,883,884,886,885,886,887,886,886,887,888,888,886,883,881,880,880,879,879,878,877,876,877,877,878,877,875,873,871,869,870,874,879,879,878,879,880,879,876,875,874,873,871,871,872,873,876,876,879,878,876,871,869,869,868,868,868,870,872,873,875,874,875,873,874,875,875,874,872,872,870,867,864,863,862,862,863,863,864,863,858,843,833,826,827,827,829,828,826,824,824,824,823,819,816,814,815,815,817,818,821,823,824,825,824,825,827,829,832,835,837,837,836,836,839,844,852,852,845,832,820,813,810,809,809,807,808,809,813,815,814,811,810,811,812,814,815,815,815,816,820,821,820,819,820,820,817,815,814,814,815,815,814,813,813,814,812,809,807,806,806,808,811,815,817,814,804,796,793,793,792,791,791,793,791,788,783,782,783,786,783,779,783,792,819,901,949,973,991,993,998,990,985,985,997,1001,993,986,988,1000,994,993,993,1000,1004,1005,1011,1010,1008,1002,1002,998,993,986,991,994,998,1003,1011,1003,990,987,1002,1011,1023,1028,1019,1005,1007,1006,1013,1021,1034,1034,1029,1021,1019,1032,1020,1024,0,1023,0
0,936,929,913,916,926,939,945,941,931,925,926,926,930,935,923,919,921,932,928,925,915,924,935,934,925,920,926,931,931,922,918,920,922,922,922,921,919,927,936,932,925,918,921,922,926,927,922,917,917,922,916,908,859,824,805,802,802,804,804,803,806,809,807,806,803,803,800,799,801,802,805,807,808,808,809,811,810,801,787,778,769,754,746,740,738,739,741,741,740,739,738,742,743,744,746,756,765,770,769,779,793,807,811,811,809,810,810,804,796,787,784,783,783,782,782,784,790,795,797,798,793,791,791,798,805,814,820,826,830,832,833,832,832,831,833,833,833,833,836,838,841,841,842,842,844,842,843,843,848,850,852,849,848,847,846,845,846,847,848,847,845,844,841,842,848,858,865,867,869,870,870,870,871,872,874,872,870,868,867,866,862,860,859,862,863,862,860,860,863,867,868,868,868,868,870,871,872,875,876,880,881,885,885,884,882,880,878,879,878,879,880,881,883,881,879,876,877,879,881,881,878,875,871,868,864,862,861,860,860,859,864,867,870,871,875,880,884,884,884,883,883,883,884,885,886,888,889,887,888,889,891,891,890,888,886,882,880,880,881,881,878,878,879,880,881,882,883,883,883,884,885,887,887,889,889,888,887,888,888,888,886,887,886,885,884,883,883,882,881,880,879,880,880,879,877,877,875,874,874,877,880,881,880,881,882,881,878,878,877,876,875,876,878,879,881,882,882,881,878,875,871,869,866,865,864,867,870,873,875,875,876,874,873,872,873,873,873,871,868,865,863,864,865,866,866,867,864,861,855,843,834,828,829,831,833,832,829,828,827,827,825,822,818,817,817,817,819,820,823,824,825,826,826,829,830,834,836,839,839,838,838,839,843,850,855,854,847,836,824,815,813,812,811,810,810,813,814,816,814,813,813,814,815,816,815,817,817,819,821,823,821,823,822,823,820,818,816,815,816,817,817,817,817,815,813,811,811,809,807,810,814,818,818,813,804,797,793,792,790,789,786,787,785,784,781,780,782,783,781,781,786,790,809,861,946,976,991,998,1001,999,989,988,993,997,992,988,989,994,994,997,996,999,1001,1008,1012,1015,1006,1001,1000,1002,998,993,995,1000,1012,1012,1012,1004,993,993,996,1005,1019,1029,1014,1000,995,995,1001,1018,1028,1033,1022,1022,1029,1034,1036,1054,1024,1020,0
0,933,913,909,912,918,930,939,941,924,924,927,929,928,930,927,917,925,933,931,931,924,932,931,928,927,923,925,927,931,925,923,923,923,926,924,921,919,927,934,929,925,917,923,922,924,924,917,916,916,923,918,892,847,797,802,805,804,805,805,804,804,805,807,803,802,802,803,799,802,804,808,808,808,808,808,811,810,800,785,769,755,746,743,740,737,737,741,742,742,740,739,742,743,742,745,754,766,771,770,776,788,802,808,810,809,811,812,807,799,789,783,782,783,782,781,782,787,793,797,800,798,795,795,798,803,812,820,826,829,831,834,835,834,832,833,834,834,833,835,837,839,840,841,841,842,842,844,845,848,850,851,849,849,848,849,846,847,847,848,846,844,844,843,844,852,861,867,866,866,866,868,868,870,871,874,873,871,869,867,865,863,860,860,861,862,861,860,860,863,867,869,869,869,869,869,870,872,874,874,876,879,881,881,880,878,877,877,878,878,878,878,880,884,883,882,877,877,878,881,882,881,878,873,868,865,863,861,860,858,857,861,865,869,872,876,882,885,887,886,885,884,885,885,887,888,888,890,889,891,891,892,892,892,890,887,884,882,881,881,881,881,881,882,883,883,882,883,883,885,886,888,888,890,891,892,890,888,889,889,888,885,886,886,885,885,886,886,885,884,884,884,884,883,882,880,880,878,878,877,879,881,882,883,884,887,885,883,882,881,880,880,882,883,883,883,882,881,878,876,874,872,870,867,864,863,866,868,870,871,872,873,873,873,872,872,871,871,870,868,865,865,868,870,870,867,865,862,860,854,843,836,831,832,833,835,834,833,832,831,830,828,826,825,824,825,823,824,823,827,826,827,828,830,832,835,838,840,841,841,840,839,840,846,852,855,854,850,840,827,817,814,813,811,811,811,816,816,818,815,814,814,817,817,817,817,818,820,821,822,823,823,825,825,826,822,818,815,815,816,817,818,818,819,816,814,812,811,809,809,811,815,819,816,810,800,795,791,790,788,788,784,785,783,785,781,780,782,784,785,786,792,794,806,854,932,972,994,1002,1006,999,992,985,990,990,990,986,987,993,997,1000,1002,1003,1008,1007,1013,1011,1006,997,1000,1006,1008,999,1005,1010,1019,1016,1014,1000,1002,1002,1002,999,1017,1018,1011,996,994,987,1008,1015,1030,1023,1023,1015,1025,1030,1033,1042,1003,1001,0
0,923,917,910,917,919,928,937,932,924,922,927,932,933,928,928,925,930,932,928,928,932,929,919,911,920,927,928,926,925,927,927,924,923,924,921,921,921,932,930,931,930,929,926,924,925,927,922,919,916,922,916,900,851,788,800,808,807,806,805,804,801,800,803,804,801,799,801,801,805,807,808,808,807,806,807,808,805,787,776,759,747,740,742,740,738,736,738,741,741,740,738,739,740,741,743,753,765,772,771,778,788,801,809,810,810,811,814,812,804,794,786,783,785,786,784,782,784,789,795,800,800,798,795,796,799,809,819,825,827,829,833,836,834,834,835,836,836,835,835,837,838,841,841,840,841,843,845,846,847,851,853,851,851,850,851,849,848,848,848,848,846,846,844,847,855,864,868,865,863,863,866,866,868,869,871,872,871,870,869,866,864,861,861,862,862,862,860,860,863,868,870,871,870,870,868,871,873,874,872,874,876,879,880,880,879,879,879,880,879,879,879,881,884,884,884,879,878,878,880,882,882,881,876,871,866,864,861,861,859,859,862,866,871,873,878,883,886,889,888,890,888,889,888,888,889,889,891,891,892,892,895,895,896,895,891,888,884,884,883,883,884,884,887,887,887,885,885,887,888,888,890,891,893,894,893,892,890,890,890,890,888,887,887,888,887,888,889,889,889,888,888,889,889,888,887,886,884,884,884,886,885,885,885,886,887,887,887,887,887,887,885,885,884,883,881,881,880,879,876,876,875,874,871,869,867,868,869,869,869,871,872,872,872,871,871,870,870,870,869,869,870,873,873,870,867,865,865,862,856,846,839,837,837,837,836,835,835,835,834,834,833,833,833,832,832,831,830,829,829,830,830,832,834,836,838,843,844,844,842,840,840,843,849,854,855,853,851,845,832,820,814,812,810,811,811,815,816,818,815,815,816,818,818,817,817,819,820,822,822,823,823,826,827,828,824,820,817,819,819,818,818,818,818,817,814,812,810,809,810,813,817,818,813,806,799,796,791,789,785,785,782,781,782,784,783,780,782,785,787,788,791,792,804,839,923,967,983,997,1002,1002,996,992,990,994,995,993,988,994,996,1005,1007,1016,1011,1006,1005,1013,1002,995,991,1000,1005,1001,1001,1009,1019,1021,1017,1004,1005,1011,1003,1007,1015,1017,1015,999,985,994,1011,1019,1018,1024,1016,1022,1026,1025,1027,1024,1024,1016,0
0,936,938,928,916,911,921,933,923,926,923,924,929,939,933,932,922,921,920,927,935,938,934,920,909,915,923,926,918,916,924,931,929,928,930,925,923,922,927,925,928,935,935,927,922,924,930,925,924,920,926,924,913,874,822,806,807,805,805,804,806,803,802,807,808,805,799,800,802,805,806,807,807,807,806,807,804,794,775,764,753,745,741,739,738,737,735,736,738,740,740,738,736,738,738,743,751,763,773,773,779,788,801,810,811,811,812,815,815,808,796,787,782,784,786,789,785,785,787,791,797,799,799,798,797,799,807,818,824,824,826,830,833,834,835,835,837,837,837,835,836,837,840,841,841,842,845,847,847,848,851,853,854,855,853,853,850,849,849,849,850,848,847,846,850,857,864,866,861,859,860,862,863,865,866,867,867,869,869,869,867,865,862,860,861,861,862,860,861,862,868,871,873,872,871,871,871,872,872,873,876,878,879,880,881,881,882,882,882,881,878,879,880,885,886,886,883,881,880,881,882,882,882,879,873,869,865,863,860,859,859,863,867,871,875,880,885,888,890,889,891,889,889,888,888,887,888,891,892,893,894,897,898,898,897,895,892,888,885,884,885,886,886,888,887,885,885,886,889,890,890,890,890,892,893,893,892,890,891,893,892,891,888,888,889,890,891,891,889,890,888,890,890,892,892,891,889,888,888,889,890,888,886,887,888,888,887,888,889,888,888,886,885,883,881,880,880,881,880,877,875,874,873,872,870,869,870,869,868,868,870,872,872,873,872,872,870,871,871,873,874,874,874,873,870,868,866,867,863,858,849,843,840,839,837,837,836,837,837,836,836,837,838,839,839,839,837,835,834,834,835,837,839,841,840,842,845,847,845,843,842,842,845,851,856,856,854,853,849,837,825,816,812,810,810,810,814,816,817,815,814,816,818,818,819,820,821,821,821,822,822,822,824,827,828,825,821,820,821,821,819,818,819,818,818,814,811,810,810,813,815,818,815,808,801,793,790,787,785,783,782,782,781,783,783,782,779,781,784,783,785,786,791,803,844,932,969,984,994,1000,1000,996,988,985,992,991,990,987,990,994,1001,1012,1015,1012,1004,1004,1010,1012,993,992,997,1004,1002,1004,1001,1008,1015,1014,1007,1010,1010,1011,1012,1014,1015,1004,987,1001,1008,1024,1019,1018,1002,1011,1018,1024,1025,1021,1017,0,1028,0
0,944,941,922,906,889,909,922,934,926,919,916,929,939,941,932,917,906,910,927,936,941,926,921,919,924,929,930,922,917,922,928,929,929,930,924,924,923,929,923,925,927,931,923,920,924,931,928,926,926,931,927,916,877,845,817,809,805,804,805,808,808,808,809,810,807,803,805,803,804,804,805,807,808,808,808,804,788,767,756,750,746,740,734,733,733,736,734,737,738,740,738,737,737,739,742,748,760,774,777,783,790,804,810,813,812,812,812,813,806,798,789,784,784,787,792,791,786,786,788,795,795,796,796,797,798,806,816,825,824,825,827,831,832,836,836,839,839,840,838,838,838,841,842,843,844,846,848,849,850,853,855,858,859,857,855,853,851,853,853,853,850,847,846,850,856,860,860,857,858,861,861,863,864,866,867,867,869,872,872,870,867,864,864,864,863,863,861,862,863,868,872,874,873,872,872,873,873,873,874,877,879,880,882,884,885,885,886,885,883,880,879,882,886,888,887,885,883,882,881,881,882,882,880,876,873,870,867,865,864,862,866,869,874,878,883,888,889,889,889,890,891,892,891,889,887,888,891,893,894,895,898,899,899,900,899,897,892,889,888,889,889,888,889,888,887,887,890,892,892,891,891,892,893,896,896,896,895,895,896,896,894,892,892,893,893,892,892,892,892,890,891,891,893,894,893,892,891,892,893,893,891,889,889,889,888,889,888,888,885,885,883,883,881,881,881,883,884,883,880,877,876,876,875,873,872,873,871,871,872,874,874,874,874,873,873,872,874,875,877,876,875,873,874,872,872,869,868,863,858,851,846,842,841,839,839,838,839,839,839,840,840,843,843,844,842,842,841,842,843,844,844,845,845,844,843,845,846,844,842,842,843,846,853,859,859,856,854,852,843,830,820,815,812,812,813,815,816,816,815,814,815,817,820,821,822,822,823,823,823,822,822,823,826,827,826,824,823,823,821,820,818,819,819,819,815,812,812,814,816,816,815,810,802,796,789,787,785,785,781,780,781,782,782,781,780,778,779,780,782,784,786,789,800,839,932,970,984,989,995,1001,998,992,986,991,991,991,989,993,994,1005,1010,1011,1003,998,999,1005,999,993,991,993,998,1001,997,998,1005,1020,1015,1005,1004,1005,1010,1016,1014,1008,995,1003,1010,1023,1026,1026,1018,1009,1011,1009,1020,1024,1027,1025,1006,1022,0
0,943,937,919,910,898,913,933,929,925,911,912,915,935,937,930,914,904,913,929,943,940,925,915,919,923,927,926,926,926,922,927,927,930,929,927,927,927,932,929,927,923,925,922,920,921,926,924,927,925,928,922,911,886,857,833,808,804,801,804,807,809,809,810,806,803,805,808,802,803,802,803,804,807,808,808,800,781,761,750,745,744,740,735,732,733,735,735,737,738,738,737,737,738,739,741,747,760,775,779,784,791,804,811,812,810,811,810,808,801,793,787,784,784,786,791,794,789,789,788,792,792,793,795,798,801,807,816,826,827,828,827,829,832,836,838,840,841,842,840,839,838,841,844,846,848,848,849,850,851,853,856,859,859,857,855,854,854,855,855,853,851,849,849,852,854,854,854,855,859,860,861,864,866,868,868,869,870,872,872,871,868,866,866,865,865,866,865,865,865,869,874,874,874,874,874,874,874,875,877,879,880,880,880,882,885,886,887,886,885,881,880,883,888,890,889,887,885,883,882,882,882,882,880,878,876,873,870,866,865,864,867,871,878,883,888,891,891,889,889,889,891,892,892,890,888,889,892,895,895,896,898,900,901,900,900,899,896,893,891,890,891,890,890,888,887,887,890,891,892,893,893,895,894,897,897,896,897,897,898,895,893,892,892,893,891,891,892,891,892,890,890,889,891,893,894,894,893,894,894,893,892,889,890,889,889,888,888,886,883,881,880,881,880,879,881,884,886,884,881,879,878,876,875,874,874,875,875,874,875,876,876,875,875,875,873,873,876,879,881,877,876,876,878,874,874,870,868,862,858,852,847,845,843,843,842,841,841,842,842,843,844,845,845,846,846,846,847,848,850,850,851,850,849,847,845,845,846,845,845,843,843,848,856,863,863,859,857,855,849,837,825,818,815,815,814,814,815,816,816,814,815,816,819,820,823,824,824,824,825,824,823,823,825,825,825,823,823,821,821,821,820,819,818,817,815,813,814,814,814,809,805,800,795,789,784,782,783,784,782,781,781,782,781,780,779,778,779,779,782,785,786,787,798,832,920,971,982,984,990,1001,999,994,985,990,992,996,994,989,993,995,1004,998,996,994,999,998,998,997,998,992,997,999,1000,993,1008,1020,1017,1004,1003,1007,1010,1019,1014,1006,1001,1011,1018,1022,1024,1027,1025,1022,1020,1015,1017,1019,1019,1017,1023,1020,0
0,930,924,918,913,913,923,927,928,907,911,906,918,926,931,927,924,918,924,925,932,932,923,911,910,915,927,926,932,933,927,925,925,928,929,929,932,924,928,928,926,921,922,921,924,926,927,925,925,924,924,919,913,897,878,829,808,803,802,804,806,809,810,808,802,801,804,810,804,805,803,804,803,804,806,805,795,773,756,747,741,742,736,733,731,733,735,735,736,736,737,737,738,738,737,737,743,759,776,781,786,792,804,809,812,811,811,808,804,798,793,789,785,784,786,789,796,792,792,791,792,791,791,794,796,799,806,815,827,831,832,830,831,833,836,839,842,843,844,843,842,841,842,844,846,847,848,850,852,853,855,856,858,858,856,854,854,854,856,856,856,853,852,851,852,851,851,853,857,861,862,863,866,869,871,872,873,873,875,873,872,870,869,868,867,867,867,867,866,868,870,873,874,875,875,876,876,876,878,880,880,880,881,882,883,886,887,888,889,887,886,884,887,888,892,890,888,885,885,884,884,884,883,882,880,879,876,874,869,868,868,872,876,882,886,890,892,892,889,890,890,892,893,895,893,891,891,893,895,896,897,898,900,903,904,904,903,901,899,896,893,893,892,892,890,890,891,893,893,894,894,896,897,897,899,899,901,902,901,901,898,895,893,892,893,891,892,893,894,894,893,892,891,892,895,895,896,895,897,898,896,894,890,890,887,887,888,888,886,883,881,880,881,878,879,879,884,887,886,883,882,881,880,878,878,878,878,877,877,878,879,879,878,877,878,877,878,881,884,884,881,880,879,880,877,875,871,868,863,858,854,850,849,847,846,845,844,844,845,846,848,849,850,849,850,850,852,854,854,854,854,853,852,850,849,848,848,849,848,847,845,844,848,856,864,864,860,858,856,854,844,832,822,818,817,815,815,815,817,818,818,819,819,819,821,822,823,825,826,827,826,825,824,825,826,825,823,820,820,820,819,816,814,812,813,813,814,813,812,807,802,795,792,790,788,786,786,786,786,784,782,780,781,779,776,774,773,776,779,782,783,784,786,799,833,0,974,985,983,989,998,996,993,985,991,1001,1000,999,994,999,1001,1001,997,990,995,996,992,991,991,995,991,999,1001,999,1000,1012,1017,1015,1009,1011,1010,1005,1010,1009,1003,999,1006,1007,1018,1022,1020,1023,1021,1021,1014,1017,1011,1012,1015,1020,1024,0
0,922,929,920,915,908,916,915,907,909,911,919,929,924,918,920,928,929,931,923,927,932,932,917,911,915,926,926,927,929,928,927,920,925,929,938,936,928,926,928,929,925,924,924,930,930,933,931,934,930,923,918,916,910,889,833,811,805,805,805,807,810,811,808,804,803,802,806,803,806,804,805,803,804,805,802,786,766,751,743,738,739,735,735,732,732,734,735,736,736,736,736,737,738,737,737,742,759,776,783,787,794,805,810,811,811,811,808,802,797,793,790,784,780,781,785,795,795,793,792,790,792,792,795,794,798,805,814,825,831,834,833,831,833,835,838,841,844,843,843,843,843,844,845,847,848,849,851,853,854,855,855,857,857,856,854,853,855,857,857,857,856,856,855,853,851,852,856,861,862,862,864,866,870,872,874,873,874,874,874,873,872,870,868,867,868,869,870,869,871,871,874,875,877,878,878,877,877,879,881,881,882,882,883,883,885,887,888,889,888,888,887,889,889,893,893,892,888,887,885,884,883,884,884,880,880,875,874,870,870,871,874,879,883,887,891,893,892,891,892,891,892,894,896,894,893,892,894,895,897,898,900,902,904,905,906,905,903,900,898,895,894,893,893,892,892,892,893,893,894,894,895,897,898,899,899,902,904,903,902,900,899,895,894,895,894,894,893,893,893,893,893,892,893,894,895,895,895,896,898,896,894,890,889,887,887,886,886,886,884,883,882,882,880,879,880,883,885,886,886,885,884,882,880,879,879,879,879,878,879,878,879,878,879,878,880,882,886,888,888,886,884,882,879,877,875,871,869,864,859,855,852,852,851,850,847,846,846,847,848,852,853,854,853,853,854,855,856,855,854,853,853,853,851,850,850,850,851,850,851,845,844,845,854,863,865,861,857,856,857,850,838,827,820,818,814,814,816,818,821,821,823,821,821,821,823,825,827,827,827,827,827,827,827,826,824,820,818,815,814,814,814,814,812,812,810,809,807,803,797,792,788,787,787,788,787,786,786,786,785,782,780,779,781,778,779,777,781,780,782,781,783,784,797,829,0,978,985,984,989,996,994,991,991,998,1006,1000,1002,1000,1005,1000,998,997,997,999,1000,999,997,998,999,997,999,996,994,1001,1016,1014,1005,1000,1004,1005,1006,1003,1000,994,994,994,1002,1012,1019,1013,1010,1016,1021,1014,1008,1001,1005,1015,1014,1020,0
0,927,914,908,902,895,902,908,909,917,920,928,930,921,911,911,924,924,928,922,925,928,928,922,918,924,931,931,932,928,925,920,922,929,934,934,927,922,919,924,927,927,927,930,935,936,937,936,935,936,929,925,920,911,884,836,816,810,810,808,810,809,810,807,807,808,805,803,804,808,808,808,806,804,803,797,779,763,750,743,740,739,736,732,731,731,733,732,733,735,737,736,735,736,737,737,743,758,773,781,788,795,805,810,814,815,814,809,805,799,796,793,787,781,781,784,794,796,792,790,789,792,793,795,795,798,805,814,824,830,834,832,830,830,833,836,840,843,844,843,844,845,845,845,845,847,849,851,855,856,856,856,857,857,856,855,854,856,856,857,858,858,857,856,855,855,857,860,863,864,864,866,868,870,870,873,873,875,874,875,874,875,872,870,870,871,871,871,872,873,874,875,877,880,881,881,882,881,882,882,882,883,883,885,885,887,889,890,892,891,891,888,889,889,894,895,895,891,889,887,886,885,887,887,883,882,879,878,874,874,874,877,880,884,888,890,893,894,894,897,893,894,895,897,896,895,894,894,894,897,899,901,902,904,907,908,908,907,903,901,898,895,894,894,895,894,895,896,897,897,896,896,898,898,901,901,905,906,907,906,905,904,901,899,898,899,898,896,897,898,899,898,897,896,894,894,893,895,895,896,895,894,891,890,889,888,890,889,888,887,887,887,886,883,882,881,883,884,886,886,886,885,884,883,883,882,881,881,881,881,880,880,879,880,881,886,889,891,891,890,890,886,883,880,879,876,873,870,868,863,858,855,854,853,851,849,848,848,849,851,855,855,857,855,855,855,856,857,856,854,855,854,854,852,851,852,852,852,852,851,847,845,844,850,857,862,860,856,856,858,855,842,829,819,817,815,818,819,820,821,823,824,825,826,825,826,827,830,830,830,830,829,828,827,827,824,821,817,815,814,815,814,816,813,810,803,800,798,796,793,790,788,788,788,791,789,788,784,786,785,783,779,777,778,777,778,777,781,781,782,782,785,786,794,819,0,973,986,983,988,990,992,990,994,995,1000,996,1005,1007,1010,1007,1000,1002,995,998,999,1001,997,994,1001,1002,1003,999,991,995,1011,1015,1009,1002,996,997,1007,1009,998,988,988,990,1001,1011,1016,1008,1012,1017,1017,1005,999,997,1009,1006,1011,1003,0
0,920,916,913,913,912,909,914,913,920,924,924,924,913,907,912,917,913,918,919,923,923,932,929,928,927,934,933,929,921,916,916,921,930,928,926,922,922,922,923,925,926,932,936,937,932,928,931,932,933,927,926,921,916,898,835,823,812,810,808,809,808,807,805,807,808,805,803,801,808,808,808,804,803,802,792,770,756,745,741,736,734,735,733,733,732,733,732,732,735,737,737,735,737,740,741,746,757,771,783,789,798,806,811,813,813,813,809,806,801,797,794,789,784,783,785,789,793,789,785,784,788,794,797,797,801,805,813,822,831,834,833,830,830,831,835,839,843,844,844,846,847,847,846,847,848,849,851,853,855,857,858,860,860,858,857,855,856,856,858,858,860,859,857,856,857,858,860,863,865,866,868,870,871,872,874,875,877,877,878,877,877,875,873,873,873,873,873,874,875,876,877,879,881,883,883,883,882,882,882,882,884,886,888,887,888,890,891,892,892,892,890,890,891,895,897,899,894,891,888,886,886,887,888,885,884,880,879,876,877,875,877,879,884,887,891,893,894,896,898,895,895,896,897,896,895,894,893,894,896,898,901,903,905,906,907,907,906,904,901,898,896,897,897,898,896,896,897,898,898,897,897,899,900,900,900,901,903,904,905,907,907,905,903,902,902,900,898,898,900,901,900,897,895,892,892,891,892,892,895,894,894,892,891,890,889,891,889,889,888,889,889,888,886,883,883,883,883,884,887,888,887,885,884,885,884,883,883,883,883,881,882,880,881,882,888,893,895,893,891,890,886,883,881,879,876,873,872,869,865,860,857,856,854,854,851,851,850,851,853,855,856,856,855,855,856,857,856,855,854,855,855,854,853,852,853,852,852,849,849,847,845,842,846,853,860,860,857,858,860,856,843,830,822,819,819,820,821,822,822,822,824,827,831,830,831,831,832,829,828,828,825,823,823,823,823,819,816,813,814,815,816,816,812,806,797,792,792,792,791,789,788,787,787,788,787,785,784,783,782,780,779,778,780,779,781,781,783,782,783,784,785,783,788,811,0,963,978,981,986,991,995,994,996,992,991,989,998,1001,1002,1003,1005,1005,995,992,995,1001,1002,999,1002,1002,998,1000,1000,997,1000,1010,1015,1014,1004,1003,1013,1016,1011,1002,999,1000,1007,1014,1010,1010,1011,1017,1019,1011,1007,1010,1005,1002,999,999,0
0,914,920,925,933,929,925,925,930,927,915,916,916,916,910,910,913,911,916,920,924,919,925,922,920,919,931,933,932,923,918,919,925,926,924,921,920,923,921,921,920,923,926,930,933,931,928,925,923,925,926,926,920,912,899,860,820,809,807,807,806,806,808,806,807,806,805,806,803,808,805,803,801,801,800,783,760,745,737,738,736,734,734,734,736,736,734,732,730,733,734,735,735,736,739,740,742,753,770,784,792,799,807,813,814,814,812,809,808,802,797,794,794,794,790,789,789,792,791,786,786,788,794,799,802,805,805,811,820,832,834,833,830,831,833,836,839,841,845,846,847,848,848,847,847,847,849,849,853,854,857,858,859,859,857,857,856,857,857,858,860,861,861,858,857,857,857,859,863,866,869,872,873,872,872,874,877,879,880,879,879,879,877,875,875,875,875,874,876,876,878,879,883,884,885,885,886,886,886,884,883,885,887,889,889,890,891,892,894,893,894,892,893,893,896,899,900,897,895,893,890,889,888,890,888,888,885,882,878,878,876,879,881,887,890,893,895,896,899,902,899,898,897,898,898,897,897,896,897,898,899,900,903,905,906,908,910,910,908,905,904,901,901,900,900,899,900,900,901,900,902,901,902,900,900,899,899,900,902,904,906,907,906,905,904,904,903,902,902,903,901,900,896,895,892,891,889,890,891,894,893,892,892,893,892,890,891,890,891,890,891,891,891,888,884,883,883,885,885,888,888,888,886,885,887,886,886,885,886,885,884,883,883,882,884,889,895,896,894,892,890,887,884,882,880,876,874,872,869,867,864,862,860,857,857,855,855,854,855,856,857,857,858,857,858,859,860,858,856,856,857,857,857,855,855,855,855,855,851,848,848,846,844,845,849,856,860,861,861,861,854,840,828,822,821,823,825,824,824,822,824,827,831,834,834,835,832,832,830,830,829,824,822,820,822,822,818,816,816,818,818,813,807,802,797,792,790,790,791,790,789,788,786,786,785,787,785,784,782,781,779,779,779,779,778,779,779,776,775,773,778,781,782,785,806,895,960,979,981,981,987,993,996,992,986,985,986,993,996,997,1003,1006,1004,991,987,992,998,997,998,999,1001,997,1001,1005,1003,1001,1009,1020,1018,1014,1011,1017,1019,1021,1016,1016,1012,1013,1013,1008,1006,1005,1007,1006,1013,1012,1020,1023,1008,1008,1011,0
