0,895,896,896,898,896,895,896,902,901,898,896,896,896,896,897,896,895,893,894,892,894,893,895,893,890,890,892,895,894,895,895,895,895,894,894,894,893,891,890,890,890,891,892,891,890,890,889,890,889,891,889,886,884,883,880,865,803,782,774,771,769,767,763,758,755,753,752,745,741,739,738,737,737,738,739,741,739,734,726,720,714,710,705,694,690,688,688,685,685,686,686,684,683,682,681,681,679,679,676,674,674,675,676,676,676,678,680,680,681,682,683,682,681,681,680,679,677,677,678,679,678,677,677,678,676,676,676,678,675,674,674,675,675,677,673,670,670,672,676,676,674,675,674,674,674,675,676,678,678,679,678,678,677,676,675,675,676,675,675,676,676,675,672,671,671,671,672,673,673,673,672,671,672,673,675,677,678,678,676,674,673,673,673,673,671,671,671,670,672,672,672,671,672,675,674,673,669,669,669,670,671,669,668,666,663,660,658,659,658,657,656,657,660,661,660,659,658,660,656,657,658,660,659,659,659,660,662,664,662,662,661,660,660,660,662,660,660,659,661,662,663,664,664,662,661,660,660,658,658,661,662,662,665,672,682,691,699,702,699,699,700,700,698,702,708,717,720,720,721,724,726,727,722,715,699,684,675,670,663,652,641,631,626,624,623,620,615,611,604,591,575,563,555,551,549,548,548,548,549,551,555,561,566,571,575,579,581,581,582,583,586,589,593,597,602,604,605,607,612,616,619,625,630,636,641,646,647,650,650,654,646,630,602,573,556,544,541,539,540,546,565,610,654,674,681,685,686,681,671,662,654,651,646,639,630,626,627,633,641,652,663,674,682,689,692,693,690,686,681,677,673,673,675,675,671,665,662,660,662,663,663,662,662,662,664,663,662,661,661,661,661,661,662,662,665,668,671,670,668,668,668,669,671,672,671,668,668,669,671,669,667,667,669,671,673,675,679,685,690,692,691,692,692,695,695,692,687,682,674,669,664,662,660,659,660,660,658,655,655,654,654,654,655,656,655,654,653,655,654,654,654,654,654,654,652,652,651,651,652,654,656,655,655,654,654,654,654,655,656,656,656,656,655,655,657,658,660,660,660,660,662,662,663,664,664,663,663,663,663,661,660,659,659,658,657,655,653,650,650,648,648,646,646,645,645,644,644,644,642,640,0
0,888,893,893,896,893,895,895,897,897,899,897,895,894,896,898,898,895,892,892,893,892,892,893,896,892,891,888,893,892,897,894,895,895,896,895,891,890,888,889,890,891,891,892,892,892,891,889,890,887,889,888,886,886,885,883,877,855,814,792,781,778,775,771,763,757,752,754,747,743,739,738,736,737,738,740,742,738,732,724,719,715,710,707,701,695,690,687,686,686,687,686,684,683,682,681,679,679,679,679,678,677,676,676,676,677,678,680,681,682,684,684,682,680,680,681,680,679,680,681,681,680,679,679,680,680,680,680,678,675,675,674,675,674,675,671,668,670,672,677,675,674,675,674,673,672,673,676,678,679,679,678,678,677,675,675,675,677,676,675,675,675,675,674,672,672,672,672,673,672,672,672,673,673,675,674,675,675,678,677,676,676,675,674,672,672,672,673,673,674,674,676,676,674,673,671,670,666,663,662,662,661,658,657,657,655,653,652,653,653,653,652,654,656,658,658,658,658,659,656,657,657,658,658,659,660,662,664,664,662,660,659,658,658,658,660,659,660,659,661,662,664,665,665,661,660,659,658,657,660,665,670,673,679,687,695,699,701,702,700,701,703,704,705,710,715,718,718,717,718,720,721,718,711,697,681,667,659,652,641,629,619,611,607,603,600,598,596,592,581,568,559,553,550,549,550,551,553,555,557,562,569,576,580,582,583,583,584,587,591,594,600,605,610,614,618,617,617,619,625,629,632,636,640,644,647,649,648,648,649,651,650,648,640,622,595,569,552,543,540,540,546,566,608,652,672,680,685,683,676,665,656,651,647,642,634,629,628,629,629,632,638,646,656,663,668,671,670,669,667,666,664,662,664,665,663,659,658,660,662,663,662,660,660,661,662,662,661,661,659,660,661,660,660,660,663,665,668,668,667,667,667,669,670,669,668,667,668,667,667,664,663,664,668,669,668,666,668,672,678,684,688,691,693,694,692,687,680,674,668,663,659,658,658,657,657,655,655,653,653,651,650,650,652,653,653,653,653,654,652,651,651,652,653,653,652,650,649,650,653,653,655,654,655,654,654,654,655,655,654,655,656,656,656,655,656,657,657,656,657,657,658,659,661,662,663,663,663,663,663,660,660,659,658,656,655,653,651,650,649,648,648,647,647,645,643,643,642,642,640,640,0
0,890,893,893,896,895,897,895,897,895,897,892,894,893,898,896,896,894,894,893,893,890,889,888,891,890,892,887,889,889,894,893,893,890,893,893,892,890,889,893,893,892,891,891,893,892,891,888,888,886,888,886,885,883,883,882,880,876,866,841,818,801,792,785,773,762,754,753,748,743,736,735,735,737,739,740,744,741,735,729,725,721,716,713,708,701,693,689,688,687,687,684,683,683,683,682,680,679,678,679,680,679,677,676,676,677,679,681,682,683,684,684,683,682,681,681,680,680,681,681,680,679,679,679,680,679,681,679,677,675,675,674,674,673,673,673,674,676,676,675,674,674,675,674,672,672,674,677,676,675,676,676,676,673,674,673,676,676,676,675,675,675,675,674,673,672,672,673,672,672,672,672,673,673,673,670,672,673,676,674,674,673,674,674,672,671,671,673,673,671,670,666,664,661,659,657,657,657,655,654,654,652,652,652,652,650,649,649,651,651,653,653,654,656,657,658,658,659,661,659,659,658,658,658,659,660,662,660,659,658,658,658,657,657,656,658,658,659,658,660,661,664,664,664,662,661,659,658,660,665,673,682,690,696,700,702,702,702,703,703,705,707,711,714,718,717,715,713,714,715,714,712,705,694,679,663,648,637,625,611,598,589,584,582,580,580,578,579,576,569,561,556,555,557,558,561,564,569,572,579,586,588,588,587,588,588,590,593,600,606,613,617,622,625,627,629,629,629,630,635,638,641,642,644,647,650,650,649,648,647,646,645,644,645,643,632,608,580,557,545,540,539,546,566,605,646,668,680,683,680,671,660,651,644,638,634,633,634,633,628,625,624,628,635,643,650,652,652,653,655,656,656,656,657,658,656,656,658,661,663,664,663,660,659,658,658,659,659,659,656,657,657,658,657,658,660,663,665,665,665,665,667,669,668,667,666,668,668,668,664,662,662,664,667,667,664,662,660,663,667,677,685,691,692,692,686,680,671,667,661,658,655,655,654,655,655,653,651,650,650,649,649,649,650,651,652,653,654,654,652,651,652,654,653,653,650,650,649,650,652,652,653,652,654,653,653,653,653,654,654,653,654,655,655,655,656,657,657,655,656,656,658,657,659,660,661,662,662,662,660,659,659,659,657,656,655,654,652,650,649,649,648,648,647,644,642,642,643,644,642,640,0
0,892,894,893,896,895,895,894,894,892,891,889,892,892,896,898,897,894,888,889,890,889,887,887,890,891,891,887,887,889,893,891,891,887,891,891,892,891,891,893,891,891,889,890,891,891,890,888,888,886,888,885,885,884,885,884,883,882,882,877,866,852,838,823,799,781,767,761,752,744,734,733,733,736,737,739,741,740,736,732,726,723,719,715,712,707,699,694,691,690,687,684,683,683,683,682,680,679,679,681,681,680,678,678,677,678,678,679,681,683,683,683,683,682,681,680,679,680,681,680,680,681,681,681,680,681,682,679,677,674,676,675,675,673,672,672,674,675,675,674,674,675,675,675,674,674,674,677,675,676,676,677,676,674,674,674,675,675,676,675,675,674,675,674,674,674,675,676,675,674,673,675,676,675,674,672,672,672,673,674,673,673,672,672,668,665,663,663,662,661,658,655,654,653,653,651,652,653,651,651,649,650,650,651,651,650,651,652,655,654,655,655,656,657,658,660,661,661,659,659,659,658,656,656,659,661,662,660,658,657,657,659,657,656,655,657,658,659,659,661,662,662,663,663,661,661,661,663,667,675,685,696,703,705,704,703,703,704,705,708,711,714,717,718,717,714,710,708,709,710,707,700,687,673,655,636,616,603,594,587,579,574,571,572,572,573,575,577,578,576,573,572,573,578,586,593,596,595,594,593,595,594,593,593,596,597,602,607,616,623,628,630,632,634,636,637,637,638,638,642,643,645,645,647,649,652,651,650,647,645,643,643,640,642,640,637,619,599,583,567,552,542,539,545,561,596,640,668,680,684,680,668,654,643,636,632,631,632,631,627,623,621,623,627,631,635,638,641,644,648,649,650,651,652,652,652,653,657,661,663,663,661,660,660,658,658,659,659,658,658,658,658,657,656,656,658,660,663,663,663,663,666,667,666,665,665,667,666,665,661,659,659,662,665,665,661,657,655,656,659,670,682,690,690,687,679,671,663,659,656,654,653,652,652,652,652,650,648,647,649,648,647,646,647,648,650,652,653,652,651,649,650,650,650,649,650,651,651,650,651,651,652,651,653,652,652,652,653,654,653,653,652,652,652,652,654,654,655,652,653,653,656,656,657,656,657,659,660,659,658,657,659,658,657,656,654,654,653,652,650,649,648,648,646,644,643,644,644,644,643,643,0
0,897,897,894,895,895,897,897,895,889,887,885,891,892,895,895,894,893,889,892,892,891,887,888,893,895,893,888,887,888,891,891,890,887,889,890,893,893,895,895,891,889,888,889,889,888,888,887,888,888,889,886,886,884,885,884,883,883,885,884,883,879,874,867,848,823,797,780,764,749,736,735,734,736,736,738,739,741,741,738,734,729,726,721,718,715,707,703,699,698,694,691,688,687,686,683,681,680,681,682,682,682,680,679,679,679,678,679,680,682,682,683,683,683,682,680,680,680,681,680,680,679,680,680,680,680,680,677,675,674,676,676,675,674,673,672,674,674,675,673,674,674,674,674,674,675,676,676,675,675,676,676,676,673,674,673,674,673,674,674,676,676,676,674,674,674,675,677,677,675,675,675,676,675,675,673,672,671,670,669,668,666,663,660,656,653,651,652,651,651,650,650,650,650,651,649,650,651,651,651,650,651,652,652,653,652,652,652,655,653,655,655,657,656,655,657,660,660,658,656,656,656,655,656,658,659,659,658,656,655,654,656,657,655,655,656,657,659,659,661,662,662,663,662,662,664,669,675,682,689,697,704,708,706,702,701,703,703,705,710,716,720,718,716,712,709,707,706,707,704,694,677,656,641,627,611,596,587,583,581,577,576,576,580,584,588,594,599,602,605,612,617,621,622,626,623,622,617,613,609,607,607,608,609,613,616,622,627,636,639,641,640,641,642,643,642,641,642,643,645,646,646,646,647,649,651,651,649,646,642,641,640,637,637,633,630,613,597,588,583,574,554,542,539,543,559,593,639,670,682,683,673,662,649,639,632,628,626,625,624,624,623,626,628,631,631,630,631,636,642,646,648,650,651,650,651,653,656,660,660,661,661,661,660,658,658,657,657,657,656,657,656,654,653,653,655,658,661,663,661,662,662,664,663,664,663,665,664,664,661,659,658,660,661,662,658,656,653,655,657,666,677,686,684,677,669,662,657,652,651,651,650,649,649,649,649,648,646,645,647,647,646,646,648,649,650,651,652,652,651,650,650,649,648,648,649,650,651,649,649,650,651,651,652,651,652,651,652,652,653,652,651,651,652,652,653,654,654,652,652,653,655,655,654,654,654,655,656,657,656,656,657,657,657,656,654,654,653,654,653,653,651,649,647,646,646,647,646,647,646,645,0
0,901,900,894,894,893,894,895,892,891,891,892,894,893,893,895,896,894,890,894,895,897,892,894,895,894,889,888,890,893,892,889,888,887,889,888,890,891,894,893,890,887,885,886,886,887,887,888,889,888,888,886,886,886,886,884,883,884,886,885,884,883,883,881,873,865,853,836,807,769,745,741,737,736,734,737,739,740,740,737,736,729,727,723,724,724,719,715,711,710,706,703,700,698,695,690,687,685,684,684,682,683,682,681,680,680,680,679,680,682,682,683,682,683,683,682,682,681,681,680,681,680,681,681,680,680,678,676,674,674,677,677,677,677,677,676,675,674,675,674,674,674,674,675,675,676,676,677,676,677,677,677,677,676,676,675,675,675,674,675,677,677,677,676,676,675,676,677,678,677,676,675,675,675,673,671,666,663,660,661,661,658,654,650,649,648,647,647,646,648,648,651,650,652,654,654,655,654,653,654,653,656,654,653,652,653,653,652,653,653,654,654,655,655,656,659,662,661,658,655,655,654,655,656,658,659,659,658,658,656,655,656,657,656,655,657,659,661,661,663,663,662,662,662,665,671,680,687,692,694,699,704,705,702,699,699,701,702,704,713,719,722,716,709,704,703,703,701,694,682,665,645,627,615,607,601,593,589,589,591,593,597,604,611,617,624,632,638,642,644,645,645,645,644,646,643,644,643,640,633,629,629,629,630,631,635,640,645,648,649,647,648,647,648,647,648,647,648,649,648,647,648,649,651,650,651,649,647,644,642,640,637,632,631,628,621,605,592,584,581,580,574,552,541,538,544,560,596,641,671,677,673,666,658,649,639,630,626,625,626,628,629,631,629,628,625,625,626,630,636,641,646,646,649,648,650,651,654,656,658,658,659,660,660,660,660,659,658,656,656,656,656,652,651,652,654,656,658,661,661,661,660,660,660,661,661,661,660,661,659,657,655,656,658,659,658,655,653,654,656,661,669,672,668,662,659,655,652,647,649,649,649,647,646,646,646,645,645,644,646,644,644,644,647,649,649,650,650,650,650,649,648,646,645,646,648,649,650,648,649,648,650,649,650,649,650,649,650,651,651,652,651,652,651,650,651,650,652,651,652,652,651,652,651,652,652,653,654,655,654,654,654,654,656,655,653,652,652,652,652,651,650,649,647,646,647,648,646,646,646,647,0
0,901,899,895,894,895,896,897,895,893,893,894,896,894,894,895,898,897,893,895,896,897,895,893,895,892,890,888,891,893,894,892,891,890,891,890,888,888,891,891,890,887,887,885,886,887,889,889,889,888,889,888,888,886,886,883,883,883,885,884,884,885,885,883,878,877,875,874,860,822,776,758,748,743,739,739,739,739,738,737,737,732,732,732,734,736,732,725,720,719,720,719,719,716,711,704,698,694,691,688,684,684,684,684,683,682,681,681,682,682,683,683,682,684,684,684,684,682,683,680,680,679,681,680,680,678,676,675,674,676,677,678,677,679,679,678,678,678,678,676,674,673,673,675,675,675,675,677,677,676,675,676,676,676,675,675,675,675,674,675,676,676,676,675,676,675,676,677,677,676,675,671,668,665,663,660,657,653,651,651,653,649,648,646,647,646,646,647,646,647,651,653,653,652,652,653,653,654,654,653,652,653,652,653,652,652,651,649,650,652,654,654,654,654,656,657,660,660,660,656,656,654,655,655,656,657,657,657,657,655,655,655,657,655,655,655,656,658,659,662,663,663,665,667,673,680,688,692,694,696,699,702,703,702,700,699,699,701,706,713,716,716,710,704,700,699,695,687,672,652,633,619,611,606,607,610,614,614,618,622,627,631,638,643,647,649,652,654,655,656,657,656,657,656,657,654,655,655,655,651,648,648,648,646,646,647,651,655,655,654,654,654,655,654,653,652,652,654,654,654,652,650,649,649,647,646,645,644,643,640,636,630,627,626,624,613,601,590,584,580,579,578,569,552,541,540,545,563,597,640,663,666,664,660,656,646,635,627,625,626,629,631,632,630,627,621,619,617,621,627,634,640,642,646,647,649,650,652,653,654,656,659,658,659,659,659,658,657,656,655,654,653,651,649,649,649,653,655,659,660,660,658,657,657,659,659,659,658,659,658,657,656,656,656,656,655,652,651,653,654,656,659,661,657,649,645,644,646,647,647,648,647,646,645,645,644,645,645,645,645,644,644,643,645,648,647,648,647,650,650,648,647,646,646,647,647,648,648,648,648,648,649,648,648,648,648,648,648,650,650,650,649,650,649,648,649,648,650,651,652,651,649,650,650,651,650,651,651,652,651,652,651,652,652,652,652,650,649,650,651,652,652,652,650,648,646,647,648,648,646,645,0
0,899,899,899,897,896,893,894,894,895,894,897,898,896,894,894,896,896,892,892,891,891,891,889,892,888,889,889,893,893,892,890,889,891,892,892,889,887,886,885,885,887,888,886,886,887,888,889,888,888,888,888,887,886,885,883,883,884,885,884,883,885,885,883,880,879,879,881,878,870,846,807,776,760,749,745,743,741,738,737,735,732,732,732,734,736,737,734,728,724,722,723,726,727,723,718,713,711,707,700,693,690,689,689,687,685,683,682,683,684,684,684,682,684,683,685,684,683,682,680,681,680,681,681,680,679,677,676,676,677,678,678,679,681,681,682,682,681,682,679,678,677,677,678,677,676,675,676,676,676,675,676,677,678,677,677,677,677,678,678,677,676,675,676,676,676,675,673,670,669,665,662,659,657,654,652,651,649,647,647,649,646,647,647,648,648,648,648,649,649,651,650,650,650,652,653,652,653,653,652,650,650,649,651,650,650,648,648,648,650,650,652,651,653,655,656,659,658,659,657,658,655,655,654,656,657,657,658,658,657,657,657,658,656,656,658,659,658,659,662,664,666,669,674,680,685,689,690,693,695,697,700,700,701,700,699,698,702,706,710,709,708,705,702,699,691,677,660,644,628,617,613,614,619,624,632,636,642,644,649,650,652,653,655,654,655,656,659,659,660,660,660,659,658,657,658,658,659,658,658,656,657,655,654,654,654,656,657,656,656,656,656,657,655,654,654,656,657,656,655,652,648,647,647,645,642,640,641,639,635,627,621,620,621,618,607,596,589,584,580,576,574,572,565,551,541,539,544,561,597,636,653,655,655,654,649,641,630,623,620,620,622,620,620,618,616,614,613,614,616,618,625,631,639,644,648,649,649,651,654,656,657,656,658,659,661,659,658,656,656,654,654,652,650,649,650,652,654,655,657,657,657,655,655,656,657,656,654,655,655,656,654,654,654,654,652,650,651,652,653,654,655,655,652,646,643,641,641,643,644,647,646,646,644,643,642,642,643,643,644,642,643,642,643,644,644,644,644,648,648,647,645,645,646,647,646,647,647,647,647,647,649,647,647,646,647,647,647,648,648,648,648,649,648,646,646,646,647,648,650,651,649,649,650,650,649,650,651,651,649,650,650,651,651,651,650,649,650,649,651,651,652,651,650,648,648,650,650,650,647,646,0
0,897,898,901,898,897,891,893,891,890,889,892,896,898,895,894,893,896,892,890,888,886,887,886,892,890,891,888,892,890,890,890,892,894,894,893,888,885,884,883,884,886,890,889,889,889,890,890,889,887,887,888,888,887,885,883,883,883,883,883,882,883,884,883,882,881,881,883,881,880,874,859,835,807,778,761,755,752,749,747,745,745,745,743,741,741,745,744,739,732,727,727,728,731,729,728,728,731,731,728,719,712,707,701,697,694,689,686,684,683,683,682,683,682,682,683,684,683,682,681,682,681,682,681,681,680,679,679,679,679,680,680,680,681,681,682,682,683,684,684,683,682,681,680,680,677,677,676,678,676,677,677,679,679,677,675,676,678,679,678,676,675,673,673,670,668,666,663,660,657,655,655,654,652,650,649,650,650,649,647,648,645,647,648,649,648,648,649,649,649,649,649,648,647,648,649,649,649,649,648,647,647,647,648,647,646,645,647,648,649,649,650,651,651,652,653,656,657,658,657,658,654,654,652,653,654,655,656,656,656,656,656,657,656,656,657,658,658,659,662,666,672,677,680,684,686,690,691,693,694,695,698,698,700,699,700,700,704,705,705,704,703,701,698,689,672,646,632,624,621,620,622,631,640,646,648,648,647,649,652,654,654,654,656,656,658,659,659,660,660,660,660,659,658,658,658,658,658,656,658,659,659,657,655,657,657,657,656,656,657,658,656,658,655,656,655,657,657,655,653,649,645,643,641,641,637,635,635,632,627,620,616,615,616,611,601,594,587,584,580,578,572,571,569,563,548,538,538,544,560,595,627,639,642,646,649,648,637,624,614,609,608,607,608,608,609,609,609,609,609,610,613,618,625,636,644,648,649,650,653,654,655,655,657,658,659,658,657,655,652,652,652,653,651,649,649,649,650,651,654,657,656,656,655,656,655,655,654,654,654,653,651,651,651,650,648,647,648,650,650,652,653,653,651,646,642,641,642,644,644,644,643,642,641,641,641,641,641,642,643,643,642,642,642,643,642,642,642,645,646,646,645,646,647,647,645,646,645,646,646,647,648,647,646,646,647,647,647,646,646,645,645,646,645,646,645,646,646,647,647,648,647,649,649,648,645,645,647,647,647,647,648,649,650,648,649,649,650,649,650,650,651,650,649,647,647,648,650,649,646,644,0
0,898,898,900,896,894,890,891,891,890,890,891,895,897,893,891,891,894,892,888,887,885,886,887,893,891,890,887,891,889,888,887,889,891,892,893,888,887,885,885,886,886,889,890,891,890,890,890,888,887,886,887,886,885,884,882,882,883,883,882,883,883,884,884,882,881,881,882,881,879,876,873,867,858,834,803,787,780,774,770,766,766,765,759,755,754,756,758,754,747,740,738,738,740,739,739,743,751,758,762,762,759,752,740,725,717,708,697,690,686,684,683,683,683,683,682,681,681,681,682,683,683,682,681,681,681,682,683,682,681,681,682,682,683,683,684,683,683,684,686,685,686,685,683,683,682,683,682,681,678,677,677,679,680,678,676,678,679,679,675,671,670,668,667,663,660,657,655,652,651,652,653,654,652,651,650,651,651,651,650,650,648,649,649,648,648,648,651,651,650,648,648,647,647,647,648,647,647,648,648,646,645,645,646,646,645,644,646,647,648,648,649,650,651,650,652,656,657,657,657,658,656,654,653,654,655,656,656,657,657,657,657,657,657,657,657,658,660,661,666,671,677,681,683,685,687,690,692,693,692,693,695,697,699,699,701,700,700,700,701,701,701,698,688,668,640,620,614,617,626,632,639,644,647,649,651,650,651,653,656,658,658,658,660,661,662,660,659,659,660,660,660,657,656,657,658,658,658,657,659,660,660,657,657,657,659,657,656,656,657,656,656,657,657,656,657,657,655,650,645,642,639,639,636,635,633,631,630,625,620,614,612,612,611,604,596,591,586,583,579,576,571,569,569,567,557,542,537,538,545,562,597,622,630,634,641,647,643,631,617,605,599,595,595,596,600,602,605,604,602,603,605,607,610,618,630,638,645,648,652,651,652,653,655,656,657,658,657,654,652,651,652,652,651,650,650,649,649,649,653,655,655,654,653,652,653,653,654,654,652,650,649,649,649,648,647,646,648,649,650,652,653,652,651,650,648,645,643,643,644,643,643,641,640,640,640,640,640,640,641,641,640,640,641,642,641,641,641,642,643,643,645,646,647,646,644,643,644,645,645,645,646,645,645,646,646,646,645,644,643,642,643,644,644,644,644,645,643,643,644,647,646,647,647,646,643,643,645,646,647,647,648,648,649,647,647,648,649,647,647,647,648,648,648,647,648,646,646,645,645,645,0
0,896,897,896,892,889,890,892,892,889,889,888,891,892,890,889,892,894,893,888,886,885,888,889,892,890,887,885,888,888,889,890,891,890,890,890,887,888,888,889,889,887,888,886,889,889,891,890,886,885,886,888,886,884,883,883,884,883,883,880,883,882,884,883,883,882,882,881,879,878,877,877,875,874,867,849,827,811,801,795,792,793,792,789,783,783,781,778,774,770,765,762,763,766,767,767,769,773,777,781,782,782,781,780,774,764,754,738,713,694,687,685,686,685,685,683,683,683,683,685,686,686,686,685,686,685,688,688,688,686,685,684,683,683,683,684,683,682,682,684,684,684,685,685,686,686,688,688,687,683,681,680,680,681,678,675,673,672,670,665,662,661,661,660,657,654,652,651,651,650,652,653,654,652,651,650,651,650,650,648,650,649,649,649,647,647,646,648,647,646,645,646,645,644,643,644,644,643,644,645,645,644,644,645,645,644,645,646,647,648,649,649,650,650,649,650,653,655,656,656,657,655,653,653,653,654,655,656,656,657,657,657,655,656,654,655,657,661,664,669,673,678,681,684,686,686,688,691,693,692,692,694,698,702,704,702,698,697,698,699,701,698,690,668,637,616,607,613,624,635,642,645,649,650,651,652,653,654,656,658,661,660,660,660,662,662,661,659,658,657,659,658,657,656,658,657,656,657,658,660,661,661,658,657,657,658,656,656,656,657,657,656,657,657,656,657,656,654,647,640,638,636,635,631,630,629,627,626,621,616,611,610,611,608,601,594,590,585,582,579,576,572,570,569,567,563,552,543,539,538,545,565,600,617,623,629,638,643,640,629,615,602,594,591,590,592,594,597,597,597,599,598,599,599,603,610,619,632,641,647,646,649,651,653,654,654,656,654,652,649,648,649,650,650,649,649,648,648,649,651,654,655,653,653,652,653,654,655,655,652,649,648,648,648,647,645,645,646,647,649,649,650,650,648,647,646,647,647,646,644,643,642,640,639,639,639,639,638,639,640,640,639,639,640,641,640,639,639,640,640,641,643,644,645,645,644,642,642,644,644,644,644,645,644,646,644,644,644,644,643,641,641,642,642,642,643,644,644,642,642,643,644,645,645,644,642,643,643,645,647,646,644,643,646,647,648,648,649,647,646,646,646,647,647,647,646,643,642,642,644,644,0
0,895,895,893,891,889,889,891,893,893,891,887,888,887,887,885,887,888,887,886,884,883,885,887,890,890,887,887,886,889,889,892,890,891,887,887,885,888,888,889,887,886,885,883,885,886,889,888,885,885,886,886,882,882,883,885,886,885,884,881,883,885,885,883,882,882,882,880,879,877,876,877,877,877,875,870,862,841,817,803,799,799,798,799,796,797,794,793,791,790,789,790,793,794,792,791,790,789,790,791,792,791,790,792,793,791,784,775,759,730,707,699,697,698,695,691,689,689,690,692,692,693,693,692,694,695,697,698,698,695,692,691,689,688,687,687,687,685,685,685,685,684,686,686,687,687,690,691,691,688,683,679,676,676,673,670,667,664,662,659,658,656,656,657,656,655,652,651,651,651,652,651,652,651,652,651,650,648,648,648,649,648,648,648,647,646,645,646,646,644,643,643,643,642,643,642,643,642,644,645,645,644,642,642,642,643,644,645,646,647,647,648,649,650,651,652,654,654,654,655,656,656,654,653,654,655,655,655,655,656,657,658,656,656,655,655,658,663,667,672,675,678,681,684,686,687,689,691,693,693,694,695,700,704,703,698,693,693,693,695,697,690,669,635,610,601,606,623,636,644,648,650,651,653,653,655,655,659,660,661,662,662,662,662,662,663,661,660,659,658,660,658,657,657,658,658,655,656,657,660,658,658,657,658,657,656,655,655,655,656,656,656,655,657,656,657,655,650,644,639,636,634,629,627,624,625,623,622,619,612,609,607,608,605,597,592,588,586,583,580,576,573,571,570,568,566,560,552,543,537,538,548,575,602,610,614,622,632,638,637,628,614,601,593,589,588,589,590,591,591,592,593,594,595,595,598,602,614,628,640,643,647,649,652,653,653,655,653,650,648,646,647,647,650,649,649,648,649,650,650,651,652,650,652,652,653,652,653,652,649,648,648,648,648,647,647,646,648,648,649,647,648,648,648,646,645,645,645,644,643,643,642,640,638,637,637,638,638,638,638,638,638,638,639,639,638,638,639,639,639,639,641,642,643,643,643,642,642,643,643,643,643,644,643,644,642,642,641,642,642,640,641,640,641,640,641,642,643,642,642,643,644,643,643,643,643,644,644,645,647,647,643,642,645,647,648,647,648,648,647,646,645,646,647,648,647,643,642,642,644,644,0
0,890,891,892,893,892,891,891,892,892,889,887,889,888,888,886,888,889,887,887,886,887,889,890,891,891,888,887,887,890,889,891,890,892,888,887,884,886,886,887,885,885,883,882,882,884,887,887,886,884,885,884,882,881,882,884,886,885,883,882,883,884,884,883,882,881,881,879,879,878,878,878,879,879,878,875,873,865,845,819,805,802,799,800,798,800,799,800,796,795,794,796,797,798,796,796,795,795,795,794,794,794,795,798,798,795,788,778,773,763,751,739,734,730,724,717,714,713,711,709,708,710,712,712,713,713,716,717,719,718,714,708,703,697,693,691,691,689,689,687,687,684,686,686,687,687,687,687,686,684,680,676,674,671,668,664,663,660,660,659,659,658,658,658,657,655,653,652,650,650,651,651,651,650,651,649,648,646,646,645,647,647,647,646,647,645,645,642,642,642,642,642,641,641,642,643,643,641,642,643,644,644,641,641,640,642,641,642,644,646,647,647,648,648,649,650,652,653,653,653,654,653,651,651,651,653,654,654,653,655,656,657,654,654,655,656,660,665,670,673,677,680,682,683,685,687,690,692,695,695,695,696,701,703,700,695,692,691,690,690,689,670,634,606,595,601,618,639,649,655,655,656,657,658,658,657,659,660,660,659,661,661,661,660,659,661,661,661,660,659,658,657,656,657,658,657,655,655,656,659,657,656,656,657,658,655,654,653,654,655,655,656,654,654,654,654,654,648,642,637,636,633,629,626,622,621,619,618,615,610,608,605,604,601,595,591,586,585,583,580,576,573,571,570,567,565,563,559,550,540,535,538,551,579,598,603,606,615,626,633,634,627,616,603,595,589,588,588,588,587,587,587,589,591,593,593,595,600,612,627,636,642,647,650,652,651,652,650,648,646,645,0,647,648,648,647,647,646,647,648,649,650,651,652,653,653,653,653,652,650,647,646,646,645,645,645,645,647,647,647,646,647,647,646,645,644,645,644,644,643,642,640,639,637,636,636,638,637,638,636,637,637,638,639,636,637,638,638,638,638,639,639,640,641,642,642,641,641,641,641,642,643,644,642,641,640,641,642,642,642,641,640,640,640,640,640,641,643,642,642,642,643,643,642,641,641,643,643,644,644,644,642,642,644,646,646,646,648,649,649,647,645,645,645,646,645,643,643,644,644,642,0
0,892,891,893,894,898,893,891,890,893,891,890,891,891,889,887,889,889,885,884,886,889,889,889,891,894,891,889,887,889,888,887,886,891,890,889,884,884,883,884,883,883,881,881,882,884,887,887,887,886,885,883,881,883,883,885,884,885,883,883,882,883,882,883,882,880,879,877,878,878,879,879,879,879,878,876,877,875,868,845,821,810,804,802,800,800,800,801,797,797,796,799,799,798,796,795,793,792,794,796,796,796,796,795,794,790,785,777,776,773,771,767,765,763,759,755,751,749,744,739,735,736,737,735,734,733,733,735,738,738,737,734,732,725,715,707,703,699,697,693,692,688,688,686,686,686,685,682,679,676,673,669,666,664,663,661,662,661,661,660,660,659,659,658,658,656,655,654,652,652,652,652,652,651,651,649,648,646,645,645,645,647,645,645,645,646,646,643,643,644,644,643,641,642,642,643,644,644,644,645,644,644,641,641,640,642,640,641,642,645,646,646,646,647,647,649,651,653,652,651,651,651,651,651,652,653,655,655,654,655,657,658,656,656,656,658,663,669,672,675,677,680,681,681,684,687,691,694,696,697,695,695,697,699,696,693,692,689,687,683,671,640,605,590,593,615,640,654,658,660,659,661,661,662,659,659,658,658,658,657,659,658,658,656,656,660,661,660,659,659,660,659,657,657,657,657,655,655,655,657,655,655,654,655,656,655,653,653,653,653,654,655,654,653,653,653,651,645,638,635,634,634,629,625,620,618,617,616,612,607,604,601,600,598,592,588,583,583,583,581,577,573,569,568,566,565,563,561,555,546,537,536,540,557,582,596,598,602,610,621,628,629,624,615,605,595,590,587,586,585,585,585,586,587,589,590,592,594,602,615,629,636,642,647,651,651,650,648,647,646,646,646,647,647,648,648,646,644,645,647,647,648,648,651,651,652,651,652,650,647,644,644,644,645,644,644,645,646,646,647,646,647,646,645,646,645,645,645,644,643,641,640,638,637,636,636,638,638,637,637,636,637,637,638,636,638,639,639,638,639,639,639,638,640,640,641,640,640,640,642,642,644,642,640,639,640,640,642,641,642,640,641,640,641,640,640,639,641,642,644,644,644,642,641,641,642,642,641,642,642,643,642,643,643,645,645,644,646,647,648,646,646,645,644,645,644,643,642,643,644,643,0
0,888,888,891,893,897,893,892,890,891,889,890,891,893,891,892,893,891,885,884,887,893,891,890,892,893,892,888,887,887,887,886,886,889,891,890,887,886,887,886,885,883,884,885,885,885,887,888,886,884,884,883,882,882,881,883,883,883,881,881,882,881,882,882,882,880,879,877,877,877,879,879,879,879,879,878,876,876,873,868,852,832,814,808,804,802,801,802,799,798,797,799,796,795,794,792,788,786,788,791,792,794,793,790,789,786,785,780,779,776,776,773,770,768,767,767,766,766,764,762,759,758,757,755,754,752,752,753,757,756,755,752,751,746,738,727,717,709,704,699,696,694,693,691,688,685,683,679,676,673,672,669,668,665,664,663,665,664,662,661,660,659,659,659,659,657,655,654,651,651,651,652,652,650,649,648,647,646,644,644,644,646,645,644,644,644,644,642,642,642,642,642,641,640,640,642,642,642,642,643,641,642,642,643,643,644,641,641,641,644,645,646,645,645,645,647,647,650,650,652,650,650,650,651,651,652,653,654,654,654,655,654,654,654,656,659,664,670,673,674,676,678,680,682,686,688,691,694,697,696,692,691,694,697,698,695,694,690,684,669,643,611,595,595,619,0,671,674,673,671,665,663,662,663,661,659,657,656,656,655,656,656,656,655,656,658,659,658,657,657,657,656,654,654,654,655,655,656,655,657,655,654,651,652,654,654,653,652,653,653,654,654,654,653,652,651,649,645,637,632,632,633,631,627,624,621,619,616,610,605,602,600,598,596,592,586,582,581,582,579,574,571,568,566,563,563,561,559,557,551,542,536,535,543,560,582,592,594,597,606,617,624,626,622,616,606,598,592,589,587,585,584,584,585,587,588,589,591,597,604,614,623,631,640,646,647,647,646,648,648,649,647,647,646,647,648,647,645,644,646,646,647,648,649,649,649,650,651,648,646,643,643,643,643,642,642,644,644,645,646,646,646,646,646,646,645,645,644,643,641,640,639,638,637,636,636,638,637,637,637,636,636,636,636,635,636,638,637,637,637,639,638,638,638,640,640,639,639,640,641,642,643,641,639,639,639,640,642,642,642,641,640,639,639,640,640,638,639,640,643,643,644,643,641,640,641,641,642,642,641,643,642,642,640,642,643,642,643,643,644,644,644,644,643,644,643,642,640,642,642,641,0
0,887,887,889,892,895,892,890,891,890,889,888,888,891,890,891,891,889,881,882,884,890,888,886,886,889,892,890,888,887,887,887,885,888,889,888,885,885,888,888,886,885,886,887,884,884,885,888,885,884,884,883,883,882,882,882,884,884,883,881,882,881,881,881,881,879,879,878,878,878,879,879,878,879,879,878,877,877,875,875,870,864,841,822,810,804,801,802,799,798,797,800,799,796,793,789,782,782,783,788,790,792,791,787,788,787,786,782,780,780,778,776,773,771,770,769,771,769,769,765,765,764,763,762,761,760,759,759,761,759,758,754,754,751,750,743,733,723,715,708,704,701,701,699,695,688,685,680,678,676,674,671,668,665,664,665,665,664,661,660,660,660,659,659,659,657,655,654,652,651,650,650,650,650,649,648,646,645,644,644,643,644,643,644,643,644,644,643,643,642,642,642,641,640,639,641,641,642,641,641,640,642,643,645,645,646,644,642,642,644,645,645,644,645,645,648,647,648,648,651,650,650,649,650,651,653,654,655,654,654,655,654,654,655,657,661,665,669,671,673,675,677,680,683,687,690,692,695,696,691,683,682,686,694,696,696,692,685,668,641,611,600,604,0,0,0,0,744,0,707,687,673,665,664,659,656,652,652,651,650,650,651,653,654,654,655,656,655,655,656,657,656,654,652,652,654,653,654,652,655,654,655,651,651,651,653,651,651,651,651,652,652,653,653,652,650,647,644,639,633,631,631,629,626,622,621,618,615,609,605,601,600,597,596,591,585,582,582,582,577,572,569,567,565,563,562,559,557,555,553,547,540,535,537,543,561,579,587,589,595,602,612,618,621,619,613,606,597,592,588,586,584,583,585,586,587,589,591,595,597,603,612,621,629,636,643,644,645,647,647,647,645,645,645,646,646,645,645,644,645,646,646,646,647,647,647,647,647,644,642,642,643,643,643,641,641,643,644,644,645,645,646,646,646,644,643,642,642,642,640,639,638,637,637,636,636,636,636,638,637,636,635,635,635,635,635,637,637,637,636,637,637,637,637,638,638,637,637,638,640,640,640,639,639,639,640,639,640,640,641,640,639,638,638,639,639,638,639,641,642,641,642,642,642,641,642,644,643,642,641,642,642,641,640,642,644,643,642,641,641,642,643,643,643,644,643,641,641,641,641,640,0
0,888,885,883,887,889,891,891,893,892,890,890,892,892,891,890,890,889,883,882,882,885,885,884,885,885,890,888,886,883,884,887,887,889,886,884,884,885,889,888,887,888,888,889,885,884,883,885,885,885,885,883,881,880,882,881,883,882,883,881,881,880,880,880,880,880,880,879,879,879,879,879,878,879,879,879,877,877,875,876,872,871,860,846,823,809,803,802,799,797,796,797,796,794,791,782,779,784,786,787,789,790,791,789,791,790,788,785,783,782,780,779,776,776,774,772,772,770,771,769,769,765,763,762,765,763,763,761,763,760,759,756,756,753,754,752,750,741,732,719,711,706,704,700,698,692,688,683,681,678,677,673,671,668,667,668,667,666,664,664,664,662,660,659,658,657,654,652,649,649,649,650,649,649,648,647,645,644,644,643,644,643,643,642,642,642,641,641,642,642,642,641,639,638,637,639,640,640,638,638,638,640,641,643,644,646,645,644,644,643,645,645,645,645,647,648,647,646,647,650,650,649,646,647,649,652,652,652,651,651,653,653,654,655,658,662,665,668,671,674,677,678,682,685,690,691,693,695,694,684,676,675,682,689,693,693,687,668,641,610,601,608,0,0,827,834,832,825,811,0,753,688,668,666,656,649,645,644,643,643,644,645,647,648,647,647,648,649,650,651,652,649,649,647,647,649,648,650,648,651,650,651,650,648,647,647,647,649,649,649,650,650,652,652,650,648,645,644,641,635,627,625,624,623,621,620,617,613,608,605,602,599,596,595,591,585,582,581,580,574,569,567,566,564,561,559,556,555,554,553,550,545,538,536,537,546,559,573,580,586,590,594,601,609,615,615,612,605,598,592,588,585,585,587,589,588,589,590,591,591,594,602,610,619,624,629,636,643,644,645,0,0,645,646,645,645,647,646,646,644,645,645,647,647,648,646,647,645,643,642,643,644,644,641,640,639,642,643,644,644,644,646,645,646,643,643,642,642,642,640,638,637,635,635,635,635,636,634,636,635,634,632,634,634,635,634,635,636,636,635,636,636,637,637,638,637,636,636,637,637,638,638,639,639,639,639,638,638,639,640,639,637,636,637,638,638,638,637,639,639,640,642,642,642,639,641,643,644,643,641,641,642,641,641,641,642,642,641,640,640,641,642,643,642,643,641,640,640,641,641,639,0
0,892,889,886,888,889,892,891,895,894,892,889,891,892,891,891,893,894,888,882,881,882,883,883,885,886,889,888,886,885,885,886,884,887,886,884,884,885,888,887,886,886,886,887,885,884,884,886,884,884,883,883,883,883,884,882,882,881,883,881,879,879,880,882,881,881,880,880,879,880,879,880,878,880,878,879,879,879,876,875,872,870,865,862,845,819,806,801,796,792,793,794,790,789,787,785,785,785,787,788,790,790,792,792,792,792,788,785,783,784,782,782,779,779,777,776,775,772,773,771,770,766,764,765,766,765,764,764,765,763,762,758,755,752,753,754,753,751,745,733,723,715,711,705,702,696,691,685,682,680,677,674,672,670,669,669,667,666,665,665,663,661,659,658,657,656,655,653,652,651,651,651,650,650,649,648,647,645,644,643,643,643,643,643,642,641,640,641,641,642,641,640,638,638,638,640,640,640,639,639,639,641,640,641,642,645,645,644,645,645,647,646,647,646,649,650,651,649,649,649,648,647,645,647,649,653,654,653,652,653,654,654,656,658,660,662,665,667,670,673,677,680,683,685,689,691,694,696,691,679,672,673,679,683,687,687,671,640,607,593,603,0,0,834,845,848,846,842,833,819,789,727,682,678,645,634,629,629,629,631,632,633,635,636,635,635,636,639,641,641,641,640,640,640,639,640,639,640,639,641,641,642,642,641,640,641,641,644,643,645,645,648,648,647,646,645,643,641,639,634,626,620,619,618,617,616,613,611,608,607,603,598,594,593,590,585,582,582,579,573,567,566,565,564,560,558,556,555,552,550,549,548,543,538,536,538,544,554,564,574,579,581,582,589,600,610,613,607,599,595,591,589,587,589,591,592,592,591,588,588,589,596,602,611,617,622,626,636,640,641,0,0,645,646,645,642,642,643,645,645,645,644,645,647,647,646,646,646,644,642,642,643,643,641,640,640,641,642,642,642,642,644,644,644,641,640,639,640,640,640,638,635,633,633,635,635,636,633,633,633,633,632,633,634,635,634,636,637,636,635,635,636,636,637,636,636,635,636,636,636,637,637,637,637,638,639,638,638,637,638,637,637,637,636,636,637,637,638,638,638,639,639,639,640,639,641,642,643,641,640,639,642,642,643,642,641,641,641,641,641,640,641,643,642,642,640,640,639,640,640,640,0
0,887,888,888,889,889,889,889,891,891,890,890,892,894,894,892,894,894,891,884,884,881,882,882,885,886,887,886,885,884,885,885,884,884,885,883,886,883,887,883,885,883,885,885,885,884,884,884,885,884,883,881,881,882,883,881,882,880,882,881,880,880,881,881,880,881,880,880,878,879,879,879,877,878,878,878,878,877,876,874,871,870,867,867,857,830,809,803,797,794,789,785,781,783,783,781,787,788,790,789,791,791,791,791,790,791,789,788,785,784,783,782,781,780,778,777,775,774,774,773,772,769,767,767,768,767,766,766,767,765,762,758,756,755,755,756,755,754,749,743,736,731,723,716,710,704,697,690,685,682,679,676,673,671,670,669,668,666,666,666,663,660,658,659,658,657,656,654,653,651,651,650,650,649,648,647,646,646,644,642,642,642,643,642,641,638,638,639,640,640,640,638,637,636,637,637,638,639,638,636,636,636,637,638,640,642,644,643,644,645,646,646,645,646,649,651,651,650,650,648,648,647,646,646,647,650,651,651,651,652,653,655,658,660,661,663,665,667,670,673,678,680,682,685,689,693,694,694,685,676,673,675,679,679,680,670,644,606,587,589,636,0,829,846,851,851,849,846,838,823,785,706,701,684,636,618,611,611,613,614,614,615,615,617,616,617,620,623,625,626,625,624,626,626,626,625,626,627,627,627,628,628,630,630,631,631,632,633,632,632,633,636,638,637,638,638,636,635,634,631,626,618,617,615,613,611,611,609,607,604,600,596,594,593,589,584,581,579,576,572,568,566,564,561,558,556,555,553,550,548,548,547,545,541,537,537,539,543,551,562,571,573,570,571,583,599,609,607,603,598,594,591,590,590,593,594,594,591,589,588,589,592,598,606,613,617,620,628,636,640,0,0,0,645,645,643,643,0,645,644,643,642,644,645,647,646,645,646,645,643,643,642,642,641,641,641,641,641,642,641,642,642,643,643,641,640,640,639,639,638,638,635,633,632,633,634,635,632,631,631,632,633,634,635,636,634,635,635,635,635,635,635,635,636,635,635,635,636,636,636,637,637,637,637,637,637,637,637,637,637,637,636,636,636,636,636,637,637,637,638,639,638,637,637,638,639,640,641,639,638,637,639,641,643,642,640,637,639,640,641,640,640,640,639,639,638,637,637,639,639,638,0
0,883,883,887,890,892,890,885,886,887,890,890,891,891,891,891,893,891,889,886,886,884,883,882,884,884,886,885,885,886,888,886,882,880,883,883,885,883,886,884,885,883,886,887,886,885,884,883,883,882,881,881,880,880,880,880,883,882,882,879,880,880,881,880,879,879,880,880,879,879,878,878,877,878,878,878,875,875,875,875,873,872,870,866,855,831,813,809,807,799,782,775,780,785,782,782,793,791,791,791,792,794,792,791,790,792,791,788,784,781,781,781,780,781,780,779,777,776,774,772,772,771,771,772,770,769,766,767,766,766,764,760,757,756,754,754,753,753,751,750,746,745,741,736,729,720,711,703,695,690,683,680,675,671,669,667,667,665,666,663,660,659,658,658,657,657,657,657,655,652,650,650,650,649,648,647,646,646,643,641,641,641,642,642,641,639,640,640,640,639,639,636,635,635,637,639,639,638,637,634,634,634,636,639,640,641,641,642,643,647,648,648,646,646,649,651,652,651,651,649,649,647,646,645,647,649,652,653,654,655,655,656,658,662,663,664,665,667,671,673,676,678,682,686,691,695,695,691,680,675,675,678,678,674,665,642,606,586,579,597,0,0,843,851,852,851,847,844,837,816,768,694,708,687,631,602,591,591,591,592,591,591,592,594,594,596,599,603,605,606,606,606,606,607,607,608,609,610,610,610,610,612,613,615,617,620,620,619,617,617,618,621,622,620,620,621,622,622,623,622,622,618,615,612,610,608,608,606,604,602,598,594,591,591,588,584,580,577,572,569,567,566,563,560,556,555,553,551,547,547,546,546,545,540,536,535,536,538,541,552,563,569,564,562,567,581,596,603,603,600,596,591,588,588,591,594,594,592,591,591,591,593,596,602,609,615,618,621,631,640,641,643,643,644,645,642,638,0,641,644,643,643,643,644,645,645,644,643,642,640,639,640,641,642,643,643,642,641,640,640,640,641,641,642,639,638,638,637,637,637,637,636,635,633,634,634,634,631,630,631,632,633,634,636,635,634,633,634,634,635,634,635,633,635,633,634,634,636,636,636,636,636,635,635,635,637,636,636,636,636,637,637,638,636,634,634,635,637,637,638,637,636,636,637,638,640,639,639,637,638,638,640,640,642,641,639,638,639,640,641,639,639,637,636,636,637,636,637,639,638,636,0
0,884,882,885,889,893,890,884,884,887,890,892,891,892,888,888,889,890,889,887,885,884,884,883,883,881,884,884,884,882,886,887,885,882,881,882,884,882,885,883,885,883,883,883,883,882,882,881,882,884,884,883,881,879,878,880,884,884,882,880,880,880,879,877,877,878,880,880,880,878,878,877,877,876,878,876,875,873,873,873,870,865,857,847,834,826,818,815,820,811,787,776,784,792,790,788,793,793,792,792,792,795,793,793,790,791,791,788,784,781,781,780,780,781,779,779,777,776,774,773,773,772,772,772,771,771,768,767,765,764,764,761,760,759,758,756,755,754,752,750,748,749,750,748,743,735,729,721,713,704,697,691,684,676,673,671,669,666,665,663,661,660,660,658,657,657,657,656,654,651,650,649,649,648,647,646,646,645,644,642,642,640,641,640,640,639,640,640,640,640,640,637,635,634,635,638,638,637,636,633,632,632,634,636,638,640,641,642,643,644,645,644,644,645,647,648,649,648,650,648,650,647,646,644,645,647,650,650,652,654,656,657,660,665,667,668,669,671,673,676,678,680,683,686,689,691,692,685,677,675,678,678,674,661,636,604,585,579,584,620,0,832,848,851,851,849,847,843,833,803,744,696,706,688,634,589,575,573,573,572,569,567,568,570,572,573,576,578,580,581,582,583,584,585,586,586,588,589,591,591,591,592,592,596,599,602,602,600,599,599,600,602,604,604,604,605,607,608,609,610,612,609,606,602,600,599,601,604,603,600,595,590,588,588,587,582,579,575,572,570,568,565,562,559,555,554,551,549,547,546,545,543,542,539,535,535,535,537,538,545,555,563,562,557,557,565,580,595,602,600,596,591,589,588,589,590,590,589,590,590,592,592,595,598,605,610,615,618,624,635,640,642,642,643,643,641,639,640,641,642,642,641,643,643,644,644,643,641,641,639,0,0,640,640,642,643,642,641,641,641,641,642,641,641,639,638,638,637,638,637,637,635,635,633,633,632,632,631,632,631,632,633,635,636,635,634,633,633,635,635,635,634,634,636,635,635,634,634,635,635,636,635,635,635,634,635,635,636,636,636,637,637,637,635,634,634,636,635,637,637,638,636,635,636,636,637,637,638,637,637,637,638,638,640,638,638,637,638,637,638,638,638,635,635,634,636,633,635,636,637,634,0
0,895,890,890,887,889,886,885,885,888,892,892,888,888,887,888,888,889,890,887,883,883,886,885,883,880,883,882,882,880,885,886,885,884,883,883,883,884,886,886,886,884,882,883,882,881,880,879,880,882,883,886,884,882,880,881,885,887,885,881,879,878,878,879,879,879,878,879,879,877,878,876,879,878,879,877,876,873,868,863,853,841,829,824,825,825,817,813,816,813,796,787,788,789,790,790,795,792,793,793,794,794,793,793,792,792,792,789,785,785,784,784,781,781,781,780,780,779,778,776,774,773,772,772,772,773,769,766,763,761,762,761,761,759,756,754,753,754,752,751,750,751,751,750,749,746,744,738,732,723,717,709,700,690,683,677,671,668,666,663,662,661,660,657,657,656,656,654,653,651,650,650,650,649,648,646,645,645,644,642,641,641,642,641,639,639,639,639,637,637,637,636,634,635,636,637,635,635,634,632,632,633,634,637,639,641,641,642,643,643,644,643,644,645,646,647,647,647,648,649,649,647,646,645,646,647,649,650,652,656,657,659,661,666,669,668,670,672,675,676,677,679,683,686,689,690,689,682,678,677,681,676,662,635,601,583,577,583,601,0,0,839,849,850,849,847,844,836,823,776,729,696,709,692,643,584,563,557,556,556,554,549,548,550,552,554,556,558,558,559,560,562,563,564,564,564,565,567,568,569,569,571,569,572,574,578,577,576,576,576,578,580,581,581,581,584,587,589,591,592,594,593,591,589,587,588,590,595,597,597,594,590,588,587,584,580,576,574,571,569,566,564,562,559,555,553,550,549,547,546,545,544,543,539,535,533,534,536,537,542,550,559,561,557,552,555,565,584,598,602,599,593,588,586,587,587,587,588,588,588,588,589,591,594,599,605,612,616,618,623,631,638,640,643,643,642,639,640,640,641,640,641,642,642,641,643,643,641,638,636,636,0,637,639,641,643,642,640,639,640,641,641,640,640,637,635,636,637,638,637,636,634,634,634,634,632,632,631,632,631,631,633,635,635,633,633,634,634,635,634,634,634,633,634,634,633,632,633,634,635,635,634,634,635,634,635,635,635,635,634,635,637,637,635,633,634,635,635,636,637,637,636,635,635,634,635,635,637,637,638,638,640,639,639,635,636,637,637,637,637,638,638,636,636,636,638,634,635,634,638,638,0
0,896,893,893,887,885,883,887,887,887,888,891,889,891,891,890,887,889,892,889,885,883,885,885,886,884,887,884,883,882,883,885,883,883,881,883,883,884,884,883,882,880,881,883,882,879,878,879,881,881,882,884,885,883,882,882,884,883,881,880,879,879,877,879,879,879,878,879,880,879,878,876,877,875,878,876,875,868,854,843,832,822,817,816,821,816,813,807,811,810,814,805,796,784,788,797,797,793,793,794,793,793,792,792,791,791,792,790,788,787,788,787,785,781,780,779,780,780,780,778,775,773,773,774,773,774,770,766,762,760,761,762,762,761,758,757,754,753,751,750,749,750,748,747,746,745,746,744,743,738,736,727,719,707,702,694,684,676,670,667,665,663,662,659,660,659,658,655,653,651,651,649,649,648,646,645,644,645,644,643,642,641,641,639,638,637,637,637,637,636,637,636,635,635,636,635,633,634,634,634,634,633,633,634,636,638,641,641,641,640,641,640,641,642,644,646,646,646,647,647,647,646,645,644,645,647,648,650,652,657,658,661,662,666,669,670,672,674,675,675,676,677,680,683,686,686,686,681,679,679,678,665,638,603,582,574,577,595,631,0,816,842,849,849,846,843,840,832,812,759,678,708,711,697,661,590,556,545,542,542,540,535,533,535,537,539,539,540,540,541,543,544,545,545,546,545,545,546,546,548,548,550,550,552,553,552,551,551,551,553,555,557,556,556,556,558,562,565,566,567,568,569,569,569,568,568,573,578,581,583,583,583,583,583,581,577,573,573,572,569,566,563,561,559,557,554,552,550,549,546,544,542,542,539,536,532,532,533,536,539,545,555,561,557,551,550,555,568,587,599,601,595,589,585,585,584,585,585,586,584,584,584,588,591,595,600,607,614,617,618,624,633,639,642,643,643,641,641,641,640,639,639,641,641,641,642,643,642,640,636,636,636,637,638,639,639,639,638,640,641,642,641,640,638,637,634,635,636,637,636,634,632,632,632,633,632,632,631,631,631,631,633,634,634,633,632,634,634,634,634,634,633,632,633,634,633,632,632,633,633,634,635,635,635,634,634,634,634,634,634,635,636,636,634,634,634,635,635,636,637,637,636,635,634,634,635,634,635,636,637,636,637,636,637,635,635,636,637,636,636,637,637,636,637,638,639,635,634,634,638,641,0
0,895,892,891,885,882,880,888,887,886,887,891,890,890,891,890,886,885,892,892,890,886,886,884,887,886,887,884,884,885,885,886,881,881,880,883,884,884,883,883,881,882,883,886,882,880,879,881,882,879,880,881,883,881,882,880,881,879,879,878,877,878,878,881,880,880,876,877,878,880,879,876,875,875,876,875,873,861,840,829,822,816,815,815,819,802,802,801,801,807,819,819,799,783,784,790,792,791,793,795,793,792,792,792,791,790,791,791,790,790,791,789,786,782,781,779,781,780,781,778,776,774,774,776,775,774,768,765,761,761,761,761,760,758,756,756,754,753,750,749,747,748,746,745,745,746,746,745,746,744,744,737,734,726,720,712,701,690,680,675,670,666,663,660,660,659,658,656,654,652,651,650,649,648,646,644,644,644,643,643,642,641,640,641,640,638,636,636,636,635,634,634,636,636,637,635,634,633,633,633,633,634,634,634,635,637,639,639,641,641,641,640,641,642,643,644,644,645,645,646,647,646,645,644,645,647,650,653,655,659,661,662,662,666,668,669,670,670,671,673,675,677,680,681,684,683,683,681,678,676,667,643,609,584,573,573,585,614,0,0,821,842,846,846,843,840,832,821,790,742,709,699,715,701,680,619,555,536,527,527,527,524,523,523,526,526,526,526,526,528,529,531,530,530,530,529,529,531,531,531,529,531,532,533,534,534,533,532,533,534,536,537,537,534,534,535,538,539,539,541,543,544,545,546,546,547,550,554,555,557,558,563,565,569,571,572,571,571,570,568,565,563,562,561,561,559,558,556,555,552,549,544,542,540,538,533,532,532,534,536,541,549,556,555,551,548,549,556,572,591,601,597,590,584,582,581,582,581,583,582,583,583,586,589,592,597,602,609,612,615,618,626,635,640,641,642,641,642,641,641,639,638,639,642,640,641,642,642,640,636,635,635,635,636,637,639,638,637,638,639,640,639,638,636,635,633,633,635,635,635,633,632,631,633,634,634,633,632,632,632,631,633,633,634,633,633,632,633,632,634,633,632,630,631,632,633,632,631,632,632,633,634,634,634,634,634,634,635,633,633,633,634,634,634,633,633,633,634,635,637,636,636,636,636,635,634,635,636,636,638,636,637,635,636,635,635,637,638,639,637,637,636,638,638,640,642,640,637,635,639,642,0
0,894,892,888,890,887,885,887,888,887,888,891,890,888,889,887,884,883,891,893,892,887,885,885,889,887,888,885,887,887,885,885,880,879,876,880,881,883,883,883,881,880,881,885,884,881,880,880,881,879,881,881,882,878,880,879,880,876,876,877,877,878,878,879,879,877,876,878,879,881,879,877,873,874,874,872,869,859,838,824,820,817,818,818,823,817,822,817,812,805,813,812,804,792,790,789,790,792,793,795,793,793,791,791,790,790,791,790,789,788,791,789,788,783,783,781,781,781,781,779,776,775,775,775,773,772,767,765,762,762,762,761,760,759,758,757,754,753,751,751,749,749,747,747,746,746,746,745,745,744,743,740,739,735,734,728,720,710,699,690,680,672,665,662,661,660,660,658,657,655,653,651,650,648,646,644,645,644,643,641,641,641,641,642,640,638,636,637,638,637,636,635,636,635,637,637,637,636,635,635,635,635,634,634,634,635,636,637,638,639,640,640,641,641,641,642,644,644,644,645,646,646,644,644,645,650,652,655,658,660,662,661,662,665,667,668,667,668,668,671,673,676,679,680,680,678,678,678,675,668,646,615,588,575,573,580,601,629,0,0,826,843,843,842,839,836,825,801,752,714,701,721,716,705,691,647,565,529,515,510,510,509,511,512,514,512,513,513,513,513,514,515,516,517,517,517,517,519,518,517,517,517,518,518,519,519,519,521,522,523,524,523,524,521,521,521,522,521,520,522,522,524,526,528,530,529,532,534,536,537,537,541,543,546,550,554,558,563,567,568,568,570,571,574,576,578,578,576,574,571,565,556,549,545,541,536,532,531,531,533,537,543,551,553,551,547,546,548,558,574,590,595,594,588,583,578,575,574,576,578,581,580,584,587,592,595,600,604,610,613,617,620,627,633,638,641,641,641,642,642,640,639,640,641,641,641,645,644,643,638,637,636,635,635,635,637,637,637,638,638,639,638,637,636,635,634,634,633,633,633,632,632,632,634,635,635,633,633,633,634,633,633,634,635,634,634,632,632,632,634,633,632,632,632,634,634,634,633,632,632,633,634,635,634,633,634,634,635,633,634,633,634,633,633,633,634,634,634,635,636,636,636,637,637,635,634,635,636,635,636,637,638,636,636,636,638,638,640,640,640,640,639,640,641,643,643,643,643,643,645,648,0
0,891,890,888,888,890,886,888,888,893,892,893,886,883,882,882,882,882,888,891,891,889,887,886,886,884,883,883,885,886,885,885,882,880,879,880,881,881,883,884,884,881,880,881,881,880,880,880,881,878,879,880,881,878,879,878,879,877,878,879,878,878,878,880,879,878,877,878,876,878,877,876,875,875,875,873,870,864,845,826,818,815,816,824,845,853,855,846,829,814,805,805,809,800,792,788,789,792,794,795,794,792,791,790,790,789,790,789,788,787,789,787,785,783,782,782,782,782,780,778,777,775,775,773,770,768,766,764,761,761,761,759,758,757,756,755,754,753,752,751,750,751,750,750,749,749,747,746,745,744,744,742,742,740,738,736,732,726,716,706,695,686,676,667,663,660,660,659,658,656,653,651,650,650,648,647,646,644,642,640,641,642,642,642,640,638,636,636,637,636,635,634,634,635,637,637,637,634,633,633,632,633,632,633,632,632,632,633,635,637,639,641,642,641,641,642,643,643,643,644,646,647,646,647,648,651,654,657,661,661,661,661,663,665,664,663,661,663,663,667,670,675,678,679,677,675,675,674,667,647,616,589,575,572,577,594,618,639,0,0,829,841,838,836,835,833,819,774,716,698,695,716,708,700,691,661,583,525,504,0,0,0,0,0,0,0,500,0,500,0,0,0,502,504,505,504,502,505,506,506,506,506,506,505,506,507,508,511,514,513,513,511,514,511,512,510,510,508,508,509,509,510,512,514,517,518,521,523,524,526,525,527,527,529,530,534,540,547,556,565,572,578,581,584,585,586,586,589,588,590,586,582,572,564,554,544,536,531,530,531,534,538,545,549,549,546,545,545,549,558,571,585,596,597,591,580,573,571,573,575,576,576,580,585,591,594,597,599,602,608,613,616,617,624,633,639,640,642,643,643,642,641,641,641,639,640,640,640,640,640,639,638,636,635,635,637,636,635,636,636,636,636,636,635,634,634,634,633,633,632,632,633,634,636,636,636,634,634,635,634,633,632,632,633,633,634,633,633,633,634,635,634,633,633,635,635,634,633,633,633,633,634,634,633,634,634,635,635,634,634,634,634,632,632,633,634,633,635,635,637,636,637,636,636,635,636,638,638,637,639,643,644,642,640,641,641,642,643,644,645,645,645,647,649,650,651,653,656,660,660,660,0
0,891,888,884,884,886,885,883,885,893,891,890,884,885,884,885,885,884,885,887,889,889,887,886,884,881,882,883,886,886,884,884,880,879,880,882,883,880,881,881,883,879,879,879,879,878,879,879,879,877,878,876,878,877,880,880,879,878,878,881,881,880,878,878,878,878,877,878,877,876,875,875,875,875,875,874,871,868,849,826,817,815,817,839,869,877,874,861,850,830,812,805,810,808,803,796,796,796,796,797,795,793,791,789,789,789,790,788,787,786,788,785,784,783,782,784,782,783,778,777,778,777,776,771,767,765,766,763,760,759,760,759,757,757,758,757,756,754,753,753,755,755,753,753,751,751,747,746,745,744,743,741,741,739,738,737,737,735,730,722,713,704,695,683,674,667,663,662,660,657,654,652,651,651,650,650,647,644,640,638,639,641,642,641,637,637,636,636,636,635,635,633,633,633,636,636,635,633,632,631,631,631,631,631,630,630,630,631,633,636,639,640,641,641,643,644,645,644,645,646,647,647,646,649,652,655,656,659,661,661,660,659,661,660,658,658,658,659,660,662,665,669,674,677,677,674,673,669,652,618,588,574,570,573,587,611,630,647,0,0,833,841,838,835,833,826,808,750,696,683,692,704,702,696,688,671,603,524,0,0,0,0,0,0,0,0,0,0,0,0,0,0,0,0,0,0,0,0,0,0,0,0,0,0,0,0,0,0,500,500,500,0,0,0,0,0,0,0,0,0,0,0,0,501,504,506,509,514,516,518,518,517,516,516,516,518,521,526,535,553,569,578,583,586,589,589,590,591,592,593,590,589,586,583,577,563,546,535,532,531,533,535,541,545,547,545,544,544,545,548,553,567,586,600,600,589,579,572,570,570,571,572,577,582,589,592,596,597,601,605,611,614,615,619,627,635,639,641,642,642,642,642,641,639,640,642,640,640,640,641,641,640,639,636,637,638,637,636,636,636,636,636,636,635,634,634,634,633,633,631,631,632,634,634,635,634,635,634,634,633,633,633,633,633,633,634,634,634,635,635,635,634,634,635,635,635,634,634,634,634,635,635,635,633,634,635,636,635,635,635,635,636,635,635,635,637,637,639,639,641,639,641,641,641,641,644,647,645,645,647,653,654,654,651,653,655,656,654,655,654,654,654,656,658,660,659,665,670,679,676,677,0
0,887,885,883,881,885,884,883,884,890,888,886,882,885,885,888,889,889,886,884,885,887,887,886,884,881,881,884,884,885,884,884,883,881,884,883,884,879,880,878,882,880,880,877,876,877,878,880,879,878,877,876,877,877,879,879,879,878,878,880,880,879,876,877,878,878,877,877,877,876,875,875,875,874,875,875,873,870,857,834,819,814,814,848,869,875,868,862,851,833,820,806,808,811,804,800,799,798,798,798,795,792,790,788,788,786,789,787,787,786,787,785,783,782,781,782,782,780,777,776,777,777,775,771,767,766,766,763,759,758,760,759,758,757,758,757,757,755,754,753,754,755,753,752,751,751,748,747,746,745,743,740,740,738,738,738,739,738,734,730,725,719,713,703,691,678,671,667,663,658,655,653,652,652,651,650,646,644,641,640,641,642,641,641,638,638,635,635,634,634,634,633,633,633,635,633,631,630,630,630,630,0,630,631,632,633,632,634,635,638,640,640,642,643,645,647,646,644,644,647,647,648,647,651,653,655,658,660,662,660,658,657,657,655,655,657,659,659,658,661,663,668,671,674,675,672,670,658,627,591,575,569,570,579,600,621,634,658,731,810,834,838,836,834,831,819,782,740,696,685,675,0,699,691,688,684,0,0,0,0,0,0,0,0,0,0,0,0,0,0,0,0,0,0,0,0,0,0,0,0,0,0,0,0,0,0,0,0,0,0,0,0,0,0,0,0,0,0,0,0,0,0,0,0,0,0,0,0,501,504,504,502,501,503,505,508,508,508,512,528,551,567,575,580,585,588,590,591,591,592,591,590,589,589,589,586,572,547,537,533,535,535,537,539,542,542,543,543,543,543,545,552,567,583,594,592,585,578,572,568,566,568,572,578,583,587,590,592,596,600,606,611,612,616,619,625,632,638,641,642,642,641,640,639,639,639,637,638,637,638,639,640,641,638,638,637,636,636,634,635,634,635,634,635,633,633,632,633,633,633,633,632,634,634,634,634,634,634,633,633,633,633,633,634,634,634,634,634,635,635,634,634,635,635,636,635,635,635,635,635,635,635,634,634,635,637,637,636,636,637,639,640,640,640,642,644,645,649,648,652,651,655,653,654,656,660,663,661,661,660,665,664,666,666,669,670,670,670,671,671,667,665,666,668,672,674,677,677,680,679,680,0
0,886,886,887,884,883,882,881,880,883,882,882,883,887,890,892,895,892,887,882,884,885,888,886,885,882,885,888,887,886,883,884,880,881,883,885,885,881,879,877,881,881,881,878,877,878,880,881,879,879,879,879,879,878,880,880,878,877,876,880,879,878,876,876,876,874,874,876,878,877,876,875,876,873,874,873,873,870,865,840,821,814,818,854,859,862,863,858,837,815,811,803,815,813,809,803,803,800,798,795,794,793,791,789,787,786,788,788,787,787,786,784,783,783,783,783,782,777,775,776,779,779,774,770,767,766,766,763,759,758,760,760,759,758,760,759,758,757,757,756,757,756,754,753,752,750,747,745,744,743,741,738,738,738,737,736,737,737,736,734,732,730,724,716,707,696,687,679,670,663,658,656,654,652,651,650,648,646,643,642,640,641,640,640,637,637,635,634,634,633,634,632,634,633,635,632,631,630,630,632,633,634,633,634,637,638,638,638,639,641,642,642,642,643,644,646,645,643,643,647,648,649,649,652,655,656,657,658,659,658,656,654,653,653,654,658,662,664,663,664,666,669,670,670,669,669,662,639,602,579,570,569,576,588,608,624,637,670,767,819,837,838,836,834,828,806,754,713,726,705,685,695,694,689,692,696,0,0,0,0,0,0,0,0,0,0,0,0,0,0,0,0,0,0,0,0,0,0,0,0,0,0,0,0,0,0,0,0,0,0,0,0,0,0,0,0,0,0,0,0,0,0,0,0,0,0,0,0,0,0,0,0,0,0,0,0,0,0,0,0,516,538,554,565,575,580,586,587,588,588,590,589,588,589,590,592,591,575,550,539,536,535,536,537,538,539,540,541,542,543,543,545,552,561,572,579,580,576,571,566,565,566,569,575,581,585,588,590,595,598,604,608,611,613,615,618,624,631,636,639,641,640,640,638,640,640,640,639,638,638,638,640,641,639,638,638,638,638,636,637,635,635,634,635,633,632,631,632,633,633,634,634,635,635,634,634,634,633,633,634,635,636,637,637,636,635,635,634,634,633,634,634,635,636,636,635,636,636,636,636,637,638,637,637,637,640,641,642,645,647,651,652,653,655,660,665,666,667,667,670,671,673,672,673,674,677,677,676,676,675,677,672,675,677,680,682,679,680,680,679,676,672,671,672,676,678,680,678,677,678,680,0
0,882,885,889,888,886,883,882,881,880,882,884,884,885,887,890,893,890,885,881,883,883,884,883,884,885,888,888,883,884,882,884,879,880,883,884,882,878,878,879,882,881,880,877,877,878,879,879,878,879,881,882,881,878,877,877,878,878,878,879,877,876,874,874,873,872,874,875,878,876,876,876,877,874,875,873,872,870,869,846,826,817,830,827,828,836,853,854,810,800,798,798,811,805,800,799,801,801,796,793,792,792,791,789,787,786,787,788,786,786,787,785,782,780,783,784,782,776,774,774,776,775,772,770,767,765,765,764,761,759,760,760,760,758,760,759,757,756,756,757,756,754,753,751,752,750,747,745,744,743,741,739,738,738,737,736,736,735,734,734,734,736,733,725,715,708,700,693,681,672,665,662,658,654,651,650,649,647,645,643,641,641,639,639,637,636,635,634,633,633,633,634,635,635,636,633,632,632,632,635,636,638,638,640,644,647,647,648,648,648,645,645,644,645,645,647,646,643,643,647,650,654,653,655,655,657,658,659,659,659,656,653,651,651,653,659,666,671,671,671,671,671,668,666,665,663,645,613,586,574,572,576,586,601,615,625,641,683,786,827,840,839,836,831,821,792,739,710,723,709,659,696,695,692,693,705,0,0,0,0,0,0,0,0,0,0,0,0,0,0,0,0,0,0,0,0,0,0,0,0,0,0,0,0,0,0,0,0,0,0,0,0,0,0,0,0,0,0,0,0,0,0,0,0,0,0,0,0,0,0,0,0,0,0,0,0,0,0,0,0,0,0,511,528,548,561,572,577,581,584,587,589,588,589,589,592,593,589,567,546,538,535,535,536,537,538,538,538,539,541,542,542,545,549,554,560,565,567,567,565,563,564,567,573,578,582,584,586,589,592,597,600,604,608,611,614,616,623,631,637,640,640,639,638,638,638,639,639,639,638,638,640,641,640,638,638,637,637,635,636,634,635,634,635,634,634,634,635,636,636,636,636,637,637,637,636,634,634,634,636,636,637,636,637,636,636,635,635,634,634,634,636,637,639,638,639,639,639,640,640,642,643,644,646,648,650,652,656,662,667,671,673,674,675,678,683,684,685,686,686,687,685,684,684,684,683,684,683,684,681,682,677,678,681,685,685,679,680,680,683,682,681,678,677,680,683,683,683,679,676,673,0
0,881,884,885,887,881,881,879,880,878,880,882,883,884,883,887,889,886,884,880,883,881,882,882,884,885,888,884,878,878,878,882,877,880,880,883,881,879,880,881,883,882,880,878,878,879,877,877,877,880,879,880,878,876,877,877,877,876,877,877,877,875,874,874,873,873,874,874,876,873,876,876,877,875,875,873,873,872,872,850,828,819,842,821,822,831,852,853,809,799,798,798,807,797,794,796,799,799,794,792,791,792,790,789,787,787,787,789,787,786,785,783,783,781,783,784,781,776,775,776,777,776,773,770,768,764,764,763,761,759,759,759,758,756,760,760,759,757,756,755,756,754,753,751,751,748,746,745,743,741,739,739,737,735,734,734,734,733,733,733,735,738,739,733,724,719,713,707,695,686,678,671,665,659,655,653,652,648,647,643,642,642,640,639,637,637,637,637,636,634,632,633,635,637,636,635,635,635,635,638,639,641,642,644,646,647,648,650,651,650,650,650,649,648,648,650,649,647,649,652,654,655,655,656,656,658,658,659,660,660,658,654,653,653,654,660,669,676,679,677,672,667,663,662,661,653,625,594,578,572,576,584,598,613,621,631,652,715,801,832,841,839,834,822,805,774,736,708,675,678,681,686,697,691,695,710,0,0,0,0,0,0,0,0,0,0,0,0,0,0,0,0,0,0,0,0,0,0,0,0,0,0,0,0,0,0,0,0,0,0,0,0,0,0,0,0,0,0,0,0,0,0,0,0,0,0,0,0,0,0,0,0,0,0,0,0,0,0,0,0,0,0,0,0,0,510,531,548,561,570,577,581,584,586,588,590,592,593,580,552,538,534,535,535,536,536,536,537,538,540,542,542,543,545,547,550,554,557,560,562,562,563,565,570,574,578,581,582,585,587,591,593,598,602,608,609,611,615,623,633,638,639,638,637,640,640,641,641,642,641,640,640,641,642,641,640,638,638,637,637,636,636,635,636,636,637,638,639,639,639,640,639,640,639,638,637,636,636,636,637,639,640,641,640,639,639,639,640,640,639,640,641,643,645,645,646,647,648,651,653,655,659,663,667,670,674,679,684,688,691,693,693,692,690,689,691,693,692,693,693,694,690,690,689,690,689,688,687,688,687,688,684,683,684,687,689,684,682,680,684,685,685,683,683,684,685,685,685,682,678,674,0
0,879,882,880,886,881,880,876,878,880,882,885,883,883,882,885,886,881,880,878,880,879,882,883,886,887,886,882,875,876,878,882,880,881,879,878,877,878,882,880,882,881,881,880,878,878,875,877,877,880,878,877,875,876,877,875,876,876,878,875,875,874,875,875,876,876,877,875,875,872,874,875,876,874,873,873,872,872,873,860,834,818,841,819,819,828,848,854,811,802,799,800,806,795,790,791,796,798,794,792,790,790,789,787,787,788,788,788,787,785,785,784,783,782,783,784,780,778,777,779,778,775,772,768,767,764,764,763,762,760,760,760,758,756,757,757,757,755,754,753,755,752,751,749,748,745,743,742,741,740,739,740,737,734,733,734,734,733,732,733,735,738,738,733,727,721,717,715,709,702,694,685,677,668,663,658,655,653,651,650,649,649,647,646,644,644,642,638,636,636,635,637,638,642,640,640,641,641,639,639,639,640,642,644,645,645,648,651,653,653,653,653,654,655,656,658,658,657,657,657,657,656,656,657,658,657,657,659,662,662,660,657,656,653,654,661,669,674,675,672,666,660,657,656,652,635,606,584,576,577,586,597,607,616,627,645,686,765,816,834,838,835,827,810,781,758,727,698,686,703,674,689,689,690,696,715,692,0,0,0,0,0,0,0,0,0,0,0,0,0,0,0,0,0,0,0,0,0,0,0,0,0,0,0,0,0,0,0,0,0,0,0,0,0,0,0,0,0,0,0,0,0,0,0,0,0,0,0,0,0,0,0,0,0,0,0,0,0,0,0,0,0,0,0,0,0,0,0,508,530,550,561,570,577,583,587,590,592,586,563,542,535,534,535,535,535,536,537,538,539,540,541,543,544,545,545,547,550,553,555,557,560,562,565,568,571,575,577,580,583,586,589,593,598,603,606,607,609,615,627,634,637,637,637,638,640,641,642,643,641,639,638,639,642,642,641,638,637,636,637,637,637,637,638,639,641,642,643,643,643,643,642,641,640,642,641,642,642,645,646,647,648,648,648,647,648,648,652,653,653,652,656,659,662,662,662,663,668,674,677,680,683,688,691,694,697,699,700,700,700,701,703,700,696,693,693,695,695,697,697,699,696,697,696,694,689,690,690,690,687,686,684,686,687,689,689,686,685,688,691,691,689,688,688,689,687,687,684,683,680,676,0
0,877,883,883,884,878,876,874,876,878,881,882,882,880,881,884,885,879,878,875,879,880,884,886,886,886,885,881,877,876,877,881,882,883,880,877,877,878,880,877,877,878,881,881,879,878,877,878,878,880,879,875,874,875,877,876,876,876,875,873,874,875,877,876,877,876,877,874,874,873,874,874,874,873,872,872,873,873,875,868,832,810,832,834,833,838,852,857,839,829,820,808,804,795,793,794,798,798,795,793,792,790,788,786,787,787,788,788,787,786,786,785,784,785,784,784,780,779,780,782,780,777,775,769,767,764,765,763,762,760,760,759,756,755,755,756,755,752,751,752,754,751,749,744,744,742,742,742,740,740,740,740,738,735,733,733,733,733,732,733,735,737,737,732,729,722,719,716,716,713,707,698,689,680,674,668,664,662,661,661,661,662,661,659,658,655,648,637,635,634,0,637,639,644,640,639,641,641,641,640,640,642,643,645,646,646,649,650,653,653,655,654,655,655,656,657,659,658,659,657,654,651,652,654,656,655,655,657,660,662,661,659,658,656,657,661,665,665,664,660,658,652,646,636,627,610,592,580,579,585,596,602,611,621,641,0,754,809,828,835,834,830,817,788,746,726,0,709,653,638,0,674,678,681,698,713,698,0,0,0,0,0,0,0,0,0,0,0,0,0,0,0,0,0,0,0,0,0,0,0,0,0,0,0,0,0,0,0,0,0,0,0,0,0,0,0,0,0,0,0,0,0,0,0,0,0,0,0,0,0,0,0,0,0,0,0,0,0,0,0,0,0,0,0,0,0,0,0,0,0,0,513,533,550,565,574,581,586,586,573,550,538,535,534,534,534,535,536,538,539,540,540,543,544,545,545,546,547,549,552,554,556,559,562,564,566,570,573,577,579,582,585,588,591,596,600,603,605,607,617,626,633,637,639,640,640,640,641,641,641,640,639,640,641,642,642,641,640,641,644,646,646,646,646,646,646,646,646,646,648,649,649,649,649,653,654,657,658,663,665,667,667,668,667,667,667,670,673,674,674,675,679,682,683,683,684,687,691,695,696,699,702,705,708,709,711,709,709,705,706,705,705,703,700,700,697,699,696,699,700,703,702,703,704,701,697,691,691,690,690,688,685,687,690,693,693,692,691,692,693,692,690,690,690,690,688,686,684,683,685,687,0
0,876,879,881,882,879,876,878,877,878,879,881,883,882,886,885,885,879,877,877,880,881,883,882,884,887,885,883,878,879,880,880,880,881,880,878,878,878,878,875,875,878,880,879,877,879,879,879,877,877,878,877,877,876,875,873,873,874,873,873,874,877,879,879,877,875,874,874,875,874,874,873,873,872,872,873,872,872,873,871,829,806,819,855,864,862,860,874,873,855,827,808,800,796,794,796,800,798,795,791,790,789,787,785,785,786,786,786,785,787,787,788,786,785,784,785,781,782,782,785,779,777,774,770,766,764,766,765,764,761,760,758,755,755,754,755,753,751,750,751,751,748,746,744,744,742,742,741,742,742,742,743,743,740,736,734,732,733,733,734,736,738,736,732,728,721,717,715,717,715,711,705,700,694,689,683,679,676,674,675,674,675,676,677,679,670,647,634,633,633,0,639,643,643,638,638,640,641,641,640,640,642,643,646,648,648,650,649,651,653,653,653,653,654,654,654,655,654,651,648,642,639,643,649,655,654,655,656,658,660,661,661,658,655,655,655,655,653,653,651,647,637,624,609,600,591,585,581,585,594,602,607,616,632,670,750,802,825,834,836,834,828,812,777,743,0,0,0,0,655,652,703,663,674,696,708,697,0,0,0,0,0,0,0,0,0,0,0,0,0,0,0,0,0,0,0,0,0,0,0,0,0,0,0,0,0,0,0,0,0,0,0,0,0,0,0,0,0,0,0,0,0,0,0,0,0,0,0,0,0,0,0,0,0,0,0,0,0,0,0,0,0,0,0,0,0,0,0,0,0,0,0,0,0,524,544,558,568,571,567,554,542,537,534,534,534,535,536,537,538,538,539,541,544,545,544,544,545,546,549,551,552,554,558,560,562,564,568,572,575,578,580,583,585,588,594,599,603,604,609,617,629,639,647,648,649,648,650,649,649,648,648,650,651,652,653,654,655,659,664,668,670,670,669,668,667,664,663,663,664,665,665,668,670,675,679,684,687,690,693,693,692,691,691,691,693,693,695,694,694,695,698,697,698,698,699,701,700,702,703,705,707,709,712,713,714,713,713,710,709,707,707,708,707,707,704,705,702,705,704,705,704,704,705,702,698,695,695,695,692,688,686,689,693,698,700,699,697,695,695,695,695,694,693,691,687,686,684,684,684,686,0
0,881,881,881,880,877,876,879,879,877,879,878,880,878,884,885,885,881,877,877,881,883,882,880,879,880,882,882,880,878,875,875,878,881,880,879,879,881,879,874,874,876,877,876,875,877,878,877,877,877,879,878,878,875,873,874,874,874,873,874,876,878,878,877,876,874,872,872,873,872,873,873,873,873,873,875,874,873,872,866,850,824,826,856,900,909,896,887,879,845,811,798,791,793,796,800,803,800,795,790,789,789,787,784,783,783,784,786,786,787,787,789,787,786,785,785,784,785,785,784,778,777,776,773,768,766,768,766,764,759,757,756,755,756,755,755,751,749,748,748,748,747,747,746,746,746,745,746,746,746,746,746,747,743,738,735,734,734,734,734,737,737,735,729,725,721,717,716,717,715,712,709,706,703,700,695,692,689,686,684,681,681,684,687,688,669,640,632,631,631,634,636,641,641,638,636,638,639,641,641,641,643,644,648,649,649,650,649,651,653,654,654,654,655,654,652,650,646,640,633,627,627,635,648,653,653,656,657,659,660,662,660,656,654,650,648,647,647,647,639,629,612,597,587,583,582,585,587,593,599,606,613,631,666,743,799,822,831,834,836,835,829,812,778,0,718,717,0,0,0,680,651,656,674,701,711,704,0,0,0,0,0,0,0,0,0,0,0,0,0,0,0,0,0,0,0,0,0,0,0,0,0,0,0,0,0,0,0,0,0,0,0,0,0,0,0,0,0,0,0,0,0,0,0,0,0,0,0,0,0,0,0,0,0,0,0,0,0,0,0,0,0,0,0,0,0,0,0,0,0,0,0,0,0,0,0,504,526,535,532,522,527,532,532,533,534,534,535,536,538,538,538,541,543,544,543,543,544,546,547,548,549,551,554,557,558,560,563,567,569,572,573,577,578,583,588,594,598,600,602,607,621,642,662,672,673,671,671,671,671,671,673,673,674,675,677,681,686,691,695,698,699,698,696,694,693,690,688,687,688,690,691,695,697,702,705,708,709,709,710,709,709,708,707,706,707,708,709,709,708,707,705,703,702,701,702,703,703,704,704,705,709,711,714,715,718,718,718,715,712,712,710,712,710,711,707,707,704,706,703,705,704,705,703,702,701,700,699,699,699,697,696,698,700,703,704,703,700,698,696,695,697,698,696,691,687,687,685,684,687,689,0
0,879,878,877,877,877,878,883,882,881,880,878,878,879,883,883,882,879,876,875,880,881,880,877,877,879,880,880,879,878,874,873,875,880,878,878,878,881,881,879,879,878,878,876,874,876,874,875,874,876,877,878,878,876,873,874,876,876,875,875,876,877,878,878,876,874,873,873,873,872,873,873,872,873,873,875,873,871,869,864,851,839,834,846,880,905,904,887,857,828,807,798,791,797,799,802,803,800,795,790,788,788,787,783,781,780,784,786,788,787,788,789,788,786,783,784,785,787,786,785,778,776,773,771,766,765,765,765,761,757,755,755,755,756,754,753,749,749,748,748,748,747,749,750,751,748,748,747,747,746,746,747,749,746,740,736,735,735,737,736,738,737,734,729,723,719,717,718,718,715,711,708,708,706,705,700,696,693,690,689,685,684,687,690,686,662,633,630,628,631,634,639,644,641,638,636,637,638,641,643,644,647,648,650,649,650,649,650,651,654,654,655,655,655,653,648,641,633,625,619,616,621,635,650,653,652,654,657,659,660,661,657,650,646,641,641,639,638,631,618,603,590,582,578,578,582,588,594,600,605,614,630,667,747,801,822,829,831,833,834,832,825,808,772,740,735,0,0,0,0,0,0,642,666,701,718,717,0,0,0,0,0,0,0,0,0,0,0,0,0,0,0,0,0,0,0,0,0,0,0,0,0,0,0,0,0,0,0,0,0,0,0,0,0,0,0,0,0,0,0,0,0,0,0,0,0,0,0,0,0,0,0,0,0,0,0,0,0,0,0,0,0,0,0,0,0,0,0,0,0,0,0,0,0,0,0,0,0,0,0,0,0,506,519,528,534,535,535,536,537,537,537,539,541,542,541,542,544,545,545,545,546,549,551,554,555,556,558,562,564,567,569,572,574,578,582,588,592,596,599,601,610,636,672,694,700,700,699,700,701,700,701,701,703,703,706,709,713,715,715,715,714,713,711,709,708,707,708,707,707,706,707,708,712,714,718,718,719,717,717,716,717,718,716,713,712,713,715,716,715,712,710,709,707,704,702,703,705,706,707,709,711,712,715,717,720,722,721,720,718,718,716,716,714,712,709,708,707,708,704,704,703,704,702,702,702,704,705,705,704,704,705,707,706,706,705,706,704,702,700,697,698,698,698,695,690,691,686,686,684,686,0
0,881,883,882,882,879,881,881,883,883,883,877,878,878,882,879,880,877,877,875,880,880,880,876,875,876,878,881,881,880,873,874,877,881,879,878,877,879,880,880,880,879,880,878,874,874,874,877,877,876,876,874,874,873,873,875,878,878,877,875,875,873,875,875,875,873,872,872,871,872,873,874,873,872,872,872,872,869,868,862,848,840,840,837,846,860,867,858,834,821,810,802,797,799,801,803,804,801,796,790,788,789,788,785,783,782,787,788,789,787,788,789,789,787,786,785,786,785,783,781,776,775,772,770,764,762,762,762,758,756,753,754,754,756,755,754,751,751,751,752,754,753,753,751,752,751,751,749,748,748,747,748,749,748,744,739,738,737,739,737,739,736,732,727,721,718,717,718,718,715,712,709,707,704,702,699,698,696,692,691,687,686,688,691,679,655,631,629,0,0,633,640,644,641,637,634,636,638,643,646,647,648,649,650,650,650,650,650,651,653,653,654,654,652,647,638,629,621,616,613,614,621,637,649,650,649,650,654,657,658,655,650,642,637,632,630,625,619,607,594,585,579,576,574,578,584,594,601,607,614,633,674,757,804,824,831,832,832,833,831,826,815,792,0,724,725,0,0,0,0,0,609,623,660,697,722,724,0,0,0,0,0,0,0,0,0,0,0,0,0,0,0,0,0,0,0,0,0,0,0,0,0,0,0,0,0,0,0,0,0,0,0,0,0,0,0,0,0,0,0,0,0,0,0,0,0,0,0,0,0,0,0,0,0,0,0,0,0,0,0,0,0,0,0,0,0,0,0,0,0,0,0,0,0,0,0,0,0,0,0,0,0,0,0,502,519,527,532,534,536,536,536,538,540,541,542,543,544,545,544,544,545,548,551,553,554,555,555,557,559,562,565,567,570,574,578,583,587,593,596,599,601,621,661,697,711,714,713,714,715,714,715,715,716,716,718,719,722,721,720,719,719,719,716,714,713,713,715,714,715,714,716,717,720,722,723,720,719,718,717,716,717,720,719,717,714,716,718,719,719,718,717,715,713,710,710,711,714,715,715,714,716,716,718,718,721,721,720,719,718,720,716,714,711,709,707,708,707,707,705,707,706,706,704,704,706,708,711,711,711,710,710,711,709,707,704,706,706,707,704,701,701,701,702,699,693,690,687,686,685,686,0
0,885,886,886,884,881,880,881,884,882,881,878,881,883,883,878,879,877,878,876,878,876,876,876,876,880,880,883,880,882,878,878,879,880,879,878,875,877,878,881,881,881,881,879,876,875,875,876,876,875,875,874,873,873,873,874,876,876,876,873,874,873,874,874,872,872,871,873,872,873,872,872,872,871,871,871,871,870,868,865,852,834,832,828,824,824,836,826,825,813,811,800,797,799,801,803,803,799,794,790,789,789,788,786,785,786,790,790,790,787,788,789,788,789,787,786,784,783,783,781,775,775,771,769,763,761,759,759,756,755,754,754,755,758,757,757,754,753,754,756,757,755,754,753,754,751,750,749,749,749,747,748,748,749,744,739,737,737,739,738,737,733,729,726,721,718,716,717,716,713,710,707,705,702,699,699,699,696,692,689,686,684,687,688,674,651,631,630,629,0,635,645,644,640,636,632,634,639,645,648,648,649,648,650,650,650,650,648,648,648,647,646,644,639,632,624,617,612,610,610,615,625,639,646,645,644,644,650,652,650,645,638,631,624,619,612,605,596,586,580,577,576,577,578,583,588,597,603,614,632,677,766,812,826,835,835,835,834,832,830,817,798,783,738,0,0,0,0,0,0,0,638,615,655,695,717,722,0,0,0,0,0,0,0,0,0,0,0,0,0,0,0,0,0,0,0,0,0,0,0,0,0,0,0,0,0,0,0,0,0,0,0,0,0,0,0,0,0,0,0,0,0,0,0,0,0,0,0,0,0,0,0,0,0,0,0,0,0,0,0,0,0,0,0,0,0,0,0,0,0,0,0,0,0,0,0,0,0,0,0,0,0,0,0,0,0,0,513,525,531,533,533,537,539,541,543,544,545,546,546,546,546,548,550,551,552,552,553,554,556,558,561,562,566,570,574,578,582,589,593,595,596,606,638,683,708,717,719,720,720,720,720,721,723,723,724,724,725,724,723,721,720,720,719,717,716,716,718,717,718,718,721,722,724,724,724,722,721,720,720,720,720,721,720,721,719,720,721,722,722,721,721,719,720,719,720,721,722,723,724,724,725,724,723,721,720,718,716,716,717,717,715,713,710,707,708,710,713,712,710,709,708,710,711,711,712,714,715,715,714,714,713,711,708,707,707,708,709,710,707,706,705,705,705,703,698,694,692,692,688,686,0
0,890,887,886,886,884,882,879,882,882,882,883,885,883,880,876,881,882,882,880,881,879,878,879,879,882,881,882,881,882,882,882,881,880,878,878,876,876,876,876,875,875,878,877,874,872,875,877,877,875,875,875,875,874,874,873,874,872,873,873,874,873,872,871,871,872,872,873,870,870,870,871,870,870,871,872,873,870,869,867,862,829,817,816,821,815,825,819,813,807,806,799,797,799,801,803,802,798,794,791,790,790,789,789,788,790,792,791,789,787,787,789,786,788,788,789,784,782,781,779,774,772,769,769,765,762,758,759,759,761,761,762,761,762,759,757,756,757,757,757,757,756,755,755,753,751,749,750,752,751,749,748,749,747,745,743,741,740,739,737,734,728,724,722,719,719,718,717,714,710,710,710,707,701,698,697,699,697,694,689,686,683,685,682,667,646,634,632,632,634,636,643,644,640,634,631,634,641,646,648,648,648,647,647,647,645,645,642,640,638,636,634,631,626,619,614,610,608,607,610,618,629,638,640,639,639,641,646,643,636,628,622,617,608,600,591,586,580,577,575,575,577,579,581,587,594,601,610,630,0,764,811,828,831,834,837,838,836,832,828,811,783,747,0,0,0,0,0,0,0,0,604,0,662,695,714,711,686,0,0,0,0,0,0,0,0,0,0,0,0,0,0,0,0,0,0,0,0,0,0,0,0,0,0,0,0,0,0,0,0,0,0,0,0,0,0,0,0,0,0,0,0,0,0,0,0,0,0,0,0,0,0,0,0,0,0,0,0,0,0,0,0,0,0,0,0,0,0,0,0,0,0,0,0,0,0,0,0,0,0,0,0,0,0,0,0,0,0,0,508,521,530,536,538,541,544,545,546,547,547,547,545,546,547,550,551,551,551,551,552,554,557,560,563,567,571,575,578,584,587,590,592,598,618,660,698,716,722,723,722,722,723,725,727,727,729,728,727,725,726,724,723,723,723,722,720,719,719,719,723,725,726,725,725,725,723,722,723,724,724,724,723,724,724,726,724,726,724,723,722,722,723,722,721,723,727,732,734,730,730,728,729,727,725,721,718,716,716,716,717,718,715,714,711,710,712,714,718,717,716,715,717,719,719,717,718,718,719,718,717,718,715,711,710,711,711,712,712,712,709,710,708,708,706,705,701,695,693,692,687,685,0
0,892,890,888,885,882,882,881,882,881,880,884,884,882,878,879,885,884,884,883,882,879,876,882,883,884,881,879,878,877,883,881,880,877,876,878,877,877,874,873,872,873,875,875,874,875,877,878,874,874,872,874,874,875,875,872,872,871,873,874,875,874,869,869,869,874,874,874,871,869,869,868,868,869,872,874,875,872,870,871,868,856,817,819,827,819,823,809,808,805,802,797,795,798,801,804,802,797,795,792,791,789,789,790,789,791,790,790,787,788,788,789,785,786,786,786,782,782,780,776,773,769,768,766,765,763,763,764,768,771,773,770,769,766,760,756,754,755,756,756,757,755,755,755,755,753,751,752,753,751,750,748,747,745,743,743,743,743,741,737,731,724,721,720,718,719,719,716,713,709,709,708,706,700,697,694,696,695,693,689,685,682,682,677,661,644,635,633,634,637,640,643,643,639,634,632,636,640,642,643,643,644,642,640,639,637,636,632,628,625,623,622,619,614,609,608,607,607,606,610,618,629,636,635,634,634,636,635,626,616,608,605,601,593,586,580,578,575,575,575,576,579,582,588,592,599,608,625,0,760,806,823,831,831,833,837,839,835,828,820,804,770,726,0,0,0,0,0,0,0,0,0,0,669,702,714,706,682,0,0,0,0,0,0,0,0,0,0,0,0,0,0,0,0,0,0,0,0,0,0,0,0,0,0,0,0,0,0,0,0,0,0,0,0,0,0,0,0,0,0,0,0,0,0,0,0,0,0,0,0,0,0,0,0,0,0,0,0,0,0,0,0,0,0,0,0,0,0,0,0,0,0,0,0,0,0,0,0,0,0,0,0,0,0,0,0,0,0,0,0,0,504,520,530,536,541,543,544,545,545,546,545,546,548,549,551,551,551,550,551,553,555,558,562,566,569,571,574,578,581,585,589,592,604,630,679,709,721,724,723,723,724,725,727,728,730,729,729,727,728,726,726,727,728,727,725,724,724,724,727,729,729,728,728,728,725,725,726,728,729,729,727,726,724,726,726,727,725,724,724,724,723,722,722,724,729,733,735,732,731,730,730,728,726,722,720,718,718,718,719,719,719,719,719,718,719,719,721,722,722,722,723,724,725,725,724,722,720,717,719,721,719,714,712,714,714,713,714,714,713,712,708,708,705,706,703,698,696,694,696,693,0
0,887,888,886,885,883,886,882,882,881,883,885,884,880,881,881,886,883,883,882,884,881,877,880,881,879,877,875,876,876,880,880,878,877,876,878,878,877,875,871,873,874,878,877,876,876,878,879,876,874,871,875,876,876,875,872,872,871,872,873,874,873,869,870,872,874,874,871,871,869,870,869,869,871,872,873,873,871,869,870,869,855,830,823,821,820,820,810,805,807,805,802,800,800,803,804,800,796,795,795,792,789,789,791,790,791,789,790,786,788,791,793,788,785,785,786,783,781,778,773,771,767,767,766,769,771,774,778,782,785,788,784,779,770,760,757,756,758,758,758,758,758,757,755,753,752,751,752,754,752,750,747,746,744,744,744,746,747,745,740,732,723,719,719,719,720,720,716,712,707,708,706,705,700,696,692,693,695,693,689,682,681,680,673,658,646,636,632,631,633,639,642,643,638,634,633,635,635,634,634,636,636,634,631,630,628,625,622,619,616,615,614,613,608,605,606,607,607,607,612,621,629,632,631,630,627,624,617,607,599,594,592,589,584,580,577,575,575,576,578,580,582,585,590,596,609,631,0,763,802,819,824,826,824,827,830,832,828,819,805,0,0,0,0,0,0,0,658,0,0,0,0,0,0,707,717,708,687,0,0,0,0,0,0,0,0,0,0,0,0,0,0,0,0,0,0,0,0,0,0,0,0,0,0,0,0,0,0,0,0,0,0,0,0,0,0,0,0,0,0,0,0,0,0,0,0,0,0,0,0,0,0,0,0,0,0,0,0,0,0,0,0,0,0,0,0,0,0,0,0,0,0,0,0,0,0,0,0,0,0,0,0,0,0,0,0,0,0,0,0,0,0,0,0,516,530,539,542,544,545,545,544,544,546,547,549,550,549,549,550,553,554,556,559,563,565,569,571,575,579,582,584,587,593,610,649,697,719,725,725,724,726,727,729,730,731,730,731,729,730,729,730,731,732,731,731,729,730,730,732,730,729,729,730,730,728,727,729,729,730,730,729,728,727,728,728,728,727,726,726,726,724,724,723,725,728,732,734,734,732,730,728,726,726,724,725,723,724,724,725,727,726,728,727,728,726,725,725,725,726,726,726,728,727,726,726,724,724,720,721,720,718,718,715,715,713,714,715,713,710,710,709,709,706,706,703,698,698,696,702,710,0
0,886,888,885,880,878,881,879,878,876,877,877,882,881,885,882,885,880,879,878,878,878,874,877,879,879,877,875,874,875,877,876,874,877,877,879,877,877,873,872,874,877,880,879,880,877,877,877,874,873,871,872,873,874,874,871,871,872,872,872,870,871,869,871,874,874,872,870,870,869,868,868,870,870,871,871,870,869,868,868,865,862,847,825,816,815,820,811,805,805,805,806,804,803,801,803,800,797,796,796,793,790,790,791,790,791,790,791,788,789,793,793,790,784,784,782,780,778,776,772,770,769,772,775,781,785,791,791,793,792,793,792,786,776,764,758,756,757,756,756,757,756,756,755,756,754,753,753,754,754,751,748,744,743,742,744,746,748,745,740,730,723,719,720,719,718,717,714,708,705,705,704,702,700,696,693,692,696,694,689,681,681,679,673,658,641,634,632,632,634,640,642,642,638,634,632,630,627,626,626,627,627,625,623,621,620,618,616,614,613,612,612,610,606,604,605,604,604,606,613,621,625,625,625,622,615,605,599,594,590,587,584,582,580,579,578,577,577,579,581,583,585,591,596,608,632,0,0,798,812,818,817,816,815,816,818,820,814,800,777,0,0,0,0,0,0,0,0,0,0,0,0,0,0,708,722,715,698,0,0,0,0,0,0,0,0,0,0,0,0,0,0,0,0,0,0,0,0,0,0,0,0,0,0,0,0,0,0,0,0,0,0,0,0,0,0,0,0,0,0,0,0,0,0,0,0,0,0,0,0,0,0,0,0,0,0,0,0,0,0,0,0,0,0,0,0,0,0,0,0,0,0,0,0,0,0,0,0,0,0,0,0,0,0,0,0,0,0,0,0,0,0,0,0,0,0,512,527,536,540,543,545,545,546,545,547,548,549,549,550,553,554,555,557,560,561,564,568,572,576,578,581,583,588,596,623,672,709,722,724,725,727,728,730,731,731,731,731,731,731,731,733,733,734,733,734,734,735,735,734,733,731,732,732,732,731,730,732,731,730,729,729,728,727,727,727,726,727,728,728,728,726,726,725,727,728,732,734,736,735,733,731,729,728,728,729,729,728,729,728,730,730,732,731,731,729,728,728,728,729,728,727,727,726,727,728,727,725,722,721,720,719,720,716,715,711,710,710,708,707,708,710,710,708,706,704,700,700,698,707,725,0
0,881,882,878,879,879,881,876,875,874,877,876,882,879,881,876,879,877,876,875,877,878,875,878,880,882,879,876,875,877,877,877,874,877,877,878,877,876,873,871,872,875,878,880,881,877,875,874,874,873,872,872,874,873,872,869,870,871,871,871,870,872,873,874,874,871,870,869,869,870,868,870,869,871,870,869,868,867,868,867,867,866,853,830,806,810,815,813,808,802,807,808,809,807,804,802,799,797,795,793,791,789,788,788,788,789,791,793,790,790,795,795,790,783,782,781,781,778,775,772,773,777,782,790,797,800,800,795,794,794,797,798,792,783,771,763,759,758,756,756,756,756,757,757,756,754,754,754,755,756,753,749,744,741,740,743,746,746,743,738,730,722,720,720,719,717,714,712,705,702,701,703,702,702,699,697,696,697,692,684,676,676,675,668,658,638,634,0,634,636,639,641,642,636,630,627,626,623,621,621,621,620,620,618,616,615,614,614,612,611,609,608,608,606,606,605,604,604,607,615,622,621,617,614,608,600,593,588,587,584,584,581,580,578,579,579,578,579,581,583,587,589,597,603,622,0,0,795,804,800,798,795,794,790,790,789,786,0,0,701,0,0,0,0,0,0,0,0,0,0,0,0,0,679,713,724,719,703,0,0,0,0,0,0,0,0,0,0,0,0,0,0,0,0,0,0,0,0,0,0,0,0,0,0,0,0,0,0,0,0,0,0,0,0,0,0,0,0,0,0,0,0,0,0,0,0,0,0,0,0,0,0,0,0,0,0,0,0,0,0,0,0,0,0,0,0,0,0,0,0,0,0,0,0,0,0,0,0,0,0,0,0,0,0,0,0,0,0,0,0,0,0,0,0,0,0,0,0,0,523,535,540,542,542,542,543,546,547,547,547,549,550,551,553,556,558,561,564,568,571,575,579,582,585,589,604,640,691,716,723,726,729,731,731,732,732,733,732,733,734,734,735,735,736,736,736,736,737,737,736,734,733,733,733,733,732,732,734,733,732,731,730,730,729,728,729,729,729,730,728,729,728,729,728,728,730,734,735,735,735,734,733,731,732,732,734,734,734,735,733,734,732,734,731,731,729,729,730,729,728,729,730,730,726,726,726,727,726,724,721,720,719,720,717,714,711,711,710,708,706,706,708,709,709,705,703,700,701,700,704,0,0
0,881,879,881,877,876,875,875,875,874,874,877,880,878,877,872,877,875,876,873,875,873,873,873,878,882,881,878,873,875,874,874,873,876,878,877,876,875,871,870,870,874,875,879,879,877,872,873,874,875,874,871,872,871,872,870,872,873,874,871,869,872,874,877,874,871,868,869,868,870,869,871,869,869,869,868,869,868,869,868,867,865,845,821,824,819,823,815,808,806,808,811,810,807,802,799,797,796,795,793,790,790,789,790,788,790,792,795,793,791,794,791,787,782,780,779,778,778,777,778,782,789,795,802,804,803,799,796,796,799,802,802,795,789,779,768,761,757,755,754,754,754,755,757,758,758,757,756,756,757,753,749,743,741,740,744,746,745,739,733,725,719,718,718,715,711,710,709,702,700,699,703,702,700,698,698,696,695,688,682,675,673,670,664,654,635,0,0,638,640,638,642,642,636,628,626,622,620,618,618,618,617,616,613,612,611,612,610,609,608,608,609,608,607,605,605,603,604,608,617,620,613,605,599,593,589,586,584,582,580,580,579,579,578,579,579,579,580,583,585,589,594,603,612,643,0,795,809,801,780,766,759,764,767,771,758,746,0,668,631,0,0,0,0,0,0,0,0,0,0,0,0,0,0,723,731,723,709,680,0,0,0,0,0,0,0,0,0,0,0,0,0,0,0,0,0,0,0,0,0,0,0,0,0,0,0,0,0,0,0,0,0,0,0,0,0,0,0,0,0,0,0,0,0,0,0,0,0,0,0,0,0,0,0,0,0,0,0,0,0,0,0,0,0,0,0,0,0,0,0,0,0,0,0,0,0,0,0,0,0,0,0,0,0,0,0,0,0,0,0,0,0,0,0,0,0,0,0,0,0,0,521,532,537,540,541,544,544,544,544,545,547,549,552,554,556,558,561,563,568,571,577,579,583,586,593,613,657,701,720,726,730,731,731,732,733,735,734,734,735,736,737,736,738,738,738,739,739,738,736,736,735,735,734,733,733,733,734,734,733,732,732,732,730,729,730,732,732,731,730,730,730,731,729,731,734,739,739,737,737,737,738,736,735,735,736,737,736,737,734,734,732,734,731,733,731,731,732,732,731,731,730,729,726,727,727,726,724,723,721,719,718,718,717,713,711,709,709,708,708,706,706,705,707,706,705,706,711,716,717,0,0
0,879,877,880,882,884,878,878,877,877,877,880,881,877,875,872,875,875,878,876,878,876,877,876,880,880,880,876,871,872,871,874,873,876,877,875,877,876,875,869,869,872,873,878,879,878,871,871,872,874,874,874,874,872,872,871,873,873,873,871,870,872,874,875,871,869,867,869,870,872,873,871,869,869,869,868,869,869,869,868,866,861,826,815,823,824,820,816,809,810,810,813,809,806,800,796,794,792,794,794,792,790,788,789,786,787,789,794,793,790,791,788,785,781,779,781,782,786,785,790,795,800,803,804,803,801,799,798,799,801,804,803,799,796,790,778,767,759,755,754,756,756,757,757,758,759,757,757,757,757,754,749,744,740,739,742,744,743,736,730,723,718,718,717,715,711,709,706,702,699,699,702,703,701,700,698,696,693,684,678,673,668,664,658,649,638,633,634,634,637,639,644,641,634,627,624,622,620,618,617,616,616,615,613,612,611,611,609,608,608,606,606,606,605,604,604,603,605,610,617,616,607,598,591,587,585,585,583,580,578,579,578,579,578,580,580,582,584,587,590,594,601,611,626,0,0,806,814,806,788,767,745,753,763,767,754,727,0,0,0,0,0,0,0,0,0,0,0,0,0,0,0,0,0,727,732,724,710,686,0,0,0,0,0,0,0,0,0,0,0,0,0,0,0,0,0,0,0,0,0,0,0,0,0,0,0,0,0,0,0,0,0,0,0,0,0,0,0,0,0,0,0,0,0,0,0,0,0,0,0,0,0,0,0,0,0,0,0,0,0,0,0,0,0,0,0,0,0,0,0,0,0,0,0,0,0,0,0,0,0,0,0,0,0,0,0,0,0,0,0,0,0,0,0,0,0,0,0,0,0,0,0,0,512,525,533,537,539,541,541,542,542,545,548,550,553,556,559,562,566,570,573,576,578,581,584,596,623,677,712,725,731,732,733,733,733,735,735,736,736,737,738,739,740,740,740,738,738,738,737,737,737,737,735,734,734,735,734,734,734,736,735,734,732,732,733,735,734,734,733,734,733,734,734,737,739,740,740,740,741,740,740,737,737,738,737,735,734,737,736,736,732,733,731,734,733,733,733,733,733,732,730,728,726,726,727,725,724,723,721,717,717,716,716,713,713,711,711,710,709,706,705,705,707,708,707,715,732,751,760,7818,0
0,882,878,879,879,881,875,874,874,877,879,881,879,879,876,875,874,874,876,877,877,877,877,875,878,878,878,875,871,872,871,874,872,876,876,877,877,875,874,871,871,873,874,879,879,878,871,869,870,874,876,875,875,873,872,872,872,872,872,871,871,873,874,875,871,871,868,868,869,871,871,870,869,868,868,868,869,873,870,867,862,853,817,805,814,821,821,819,808,810,807,811,806,803,797,793,791,791,794,796,793,790,788,789,787,786,788,792,794,791,788,784,783,782,783,788,793,796,796,798,800,801,801,801,800,800,800,800,799,804,804,805,802,804,800,790,774,762,755,753,754,754,755,756,757,758,758,758,758,759,755,748,743,740,741,744,745,741,732,725,718,716,716,716,713,709,709,705,702,699,700,702,703,700,697,696,694,692,683,677,673,667,662,656,646,637,633,634,633,635,638,644,641,632,626,623,621,619,618,618,616,616,615,612,610,609,610,608,607,607,606,605,605,603,602,602,601,604,608,615,610,600,593,588,585,585,584,582,579,579,578,578,578,578,580,581,583,587,591,595,603,613,630,659,0,0,802,813,810,805,794,770,751,751,757,742,716,0,0,0,0,0,0,0,0,0,0,0,0,0,0,0,0,0,721,729,725,712,688,0,0,0,0,0,0,0,0,0,0,0,0,0,0,0,0,0,0,0,0,0,0,0,0,0,0,0,0,0,0,0,0,0,0,0,0,0,0,0,0,0,0,0,0,0,0,0,0,0,0,0,0,0,0,0,0,0,0,0,0,0,0,0,0,0,0,0,0,0,0,0,0,0,0,0,0,0,0,0,0,0,0,0,0,0,0,0,0,0,0,0,0,0,0,0,0,0,0,0,0,0,0,0,0,0,0,0,519,528,533,537,540,541,542,545,547,551,554,558,560,563,565,569,571,574,577,581,587,604,645,698,720,729,730,732,732,734,736,736,737,738,740,741,741,742,741,741,739,738,738,739,739,739,738,736,735,737,737,735,734,735,737,736,735,733,733,735,736,737,737,736,736,734,737,737,741,742,744,744,743,743,742,740,738,739,740,738,736,734,737,736,737,734,734,734,736,737,737,735,734,733,732,730,727,726,725,726,725,725,723,720,717,717,716,715,713,713,710,708,707,709,706,704,704,706,713,718,736,757,772,0,0,0
0,882,882,880,882,883,878,873,871,875,879,881,878,877,876,876,874,873,873,876,879,883,881,881,880,879,874,871,869,872,874,876,874,873,872,873,875,874,873,872,873,875,876,878,877,876,871,869,870,872,872,872,873,871,870,871,872,873,870,870,870,871,871,870,868,868,867,868,869,869,870,868,867,866,866,868,868,871,868,866,860,854,824,808,812,822,824,814,807,808,805,807,802,800,796,792,790,790,793,795,794,790,787,786,785,785,787,790,793,790,788,784,785,787,794,802,808,809,804,801,798,799,799,800,801,801,801,800,800,804,804,805,805,810,808,802,783,767,757,753,755,756,757,756,756,757,758,758,758,758,755,748,742,739,740,743,743,737,730,723,716,716,720,719,714,708,707,704,703,701,702,701,702,699,697,697,694,691,680,675,672,665,661,655,647,635,631,631,632,635,641,645,642,632,624,622,621,621,619,618,616,616,615,613,611,609,609,608,608,608,606,604,603,602,601,602,601,603,605,609,601,594,590,588,587,586,584,582,580,581,581,581,579,579,581,584,587,590,595,604,617,642,675,736,752,764,780,800,807,810,807,797,769,740,731,721,0,0,0,0,0,0,0,0,0,0,0,0,0,0,0,0,0,0,716,726,725,711,686,0,0,0,0,0,0,0,0,0,0,0,0,0,0,0,0,0,0,0,0,0,0,0,0,0,0,0,0,0,0,0,0,0,0,0,0,0,0,0,0,0,0,0,0,0,0,0,0,0,0,0,0,0,0,0,0,0,0,0,0,0,0,0,0,0,0,0,0,0,0,0,0,0,0,0,0,0,0,0,0,0,0,0,0,0,0,0,0,0,0,0,0,0,0,0,0,0,0,0,0,0,0,0,0,0,0,0,0,0,509,521,531,535,539,541,544,549,552,556,559,560,562,564,568,571,575,578,584,592,620,675,712,728,731,731,730,731,733,735,737,739,741,743,744,743,742,742,740,739,739,741,741,741,739,738,737,739,740,738,737,737,738,737,736,735,735,737,739,738,737,735,736,736,739,743,745,746,746,745,744,743,743,741,741,742,742,739,738,736,740,738,737,734,735,736,738,739,739,736,734,732,733,732,729,727,725,725,726,727,724,721,719,719,717,715,714,714,712,709,708,709,707,705,707,712,723,738,759,773,779,784,769,0
0,884,887,883,879,876,875,870,871,874,879,882,882,878,875,876,878,878,872,873,874,879,876,877,877,880,874,872,869,872,874,874,873,872,873,873,871,867,869,872,876,877,877,876,876,877,874,872,871,872,872,870,870,870,870,873,873,873,871,870,868,868,868,868,868,867,867,868,868,868,868,868,866,865,865,868,869,871,868,866,862,856,832,814,815,824,815,807,804,804,802,801,800,801,799,795,792,791,792,795,794,791,788,786,785,787,790,790,792,789,791,790,794,797,805,810,812,810,805,801,797,798,798,799,800,803,803,802,802,803,806,807,809,815,816,813,796,778,762,754,753,754,756,756,757,759,760,760,759,758,753,745,739,739,743,748,745,736,726,718,714,716,721,719,711,706,702,702,702,704,704,701,699,696,695,695,692,687,678,673,669,661,658,655,648,635,632,631,634,638,643,644,639,631,624,622,621,621,618,618,615,615,613,612,609,608,607,606,605,605,604,603,602,602,600,600,599,602,605,604,595,589,587,587,586,585,583,581,580,582,582,583,580,580,582,586,589,595,603,620,653,698,731,747,756,754,750,772,797,810,813,808,798,766,724,0,0,0,0,0,0,0,0,0,0,0,0,0,0,0,0,0,0,0,712,719,719,708,688,0,0,0,0,0,0,0,0,0,0,0,0,0,0,0,0,0,0,0,0,0,0,0,0,0,0,0,0,0,0,0,0,0,0,0,0,0,0,0,0,0,0,0,0,0,0,0,0,0,0,0,0,0,0,0,0,0,0,0,0,0,0,0,0,0,0,0,0,0,0,0,0,0,0,0,0,0,0,0,0,0,0,0,0,0,0,0,0,0,0,0,0,0,0,0,0,0,0,0,0,0,0,0,0,0,0,0,0,0,0,0,0,521,530,536,540,546,549,553,555,557,558,560,565,570,574,577,580,585,603,647,698,722,730,730,730,732,734,735,737,740,742,743,744,744,744,744,744,744,745,744,743,741,740,739,739,739,740,740,740,738,738,736,735,735,735,738,740,739,739,737,737,740,744,747,747,747,746,744,742,742,742,742,743,743,744,741,740,740,740,738,738,738,740,740,740,739,739,738,735,732,733,732,732,729,729,727,728,727,725,722,720,719,717,713,713,713,713,711,709,709,707,708,715,727,744,760,774,783,784,787,787,0
